7.199360169256482367e-01,7.185762805978048728e-01,7.173959305909213269e-01,7.165588199859344032e-01,7.162263302246327790e-01,7.165522655184167755e-01,7.176777636009287198e-01,7.197264400498426529e-01,7.227999815883970891e-01,7.269743897880150962e-01,7.322970508539679013e-01,7.387847709453805312e-01,7.464228717813520264e-01,7.551653907659335863e-01,7.649363766112881047e-01,7.756322187416279101e-01,7.871248998696261934e-01,7.992660190146874122e-01,8.118913993363978676e-01,8.248260732646737203e-01,8.378894275035323469e-01,8.509002927082999213e-01,8.636817763057895725e-01,8.760656606292799298e-01,8.878962202686593308e-01,8.990333498738626306e-01,9.093549339717527102e-01,9.187584310356999850e-01,9.271616826443045412e-01,9.345029929906760735e-01,9.407405526337132562e-01,9.458513021342556115e-01,9.498293455693076481e-01,9.526840308816999503e-01,9.544378140901170759e-01,9.551240184275429090e-01,9.547845886395386339e-01,9.534679262578221737e-01,9.512268750129166950e-01,9.481169079487372642e-01,9.441945504004838341e-01,9.395160567478185731e-01,9.341363444806691785e-01,9.281081770966884692e-01,9.214815779368272786e-01,9.143034503004346947e-01,9.066173749337262944e-01,8.984635539951204564e-01,8.898788705206753802e-01,8.808970338498929298e-01,8.715487840240553341e-01,8.618621314534410383e-01,8.518626118251794166e-01,8.415735400045081249e-01,8.310162503458784489e-01,8.202103142172966210e-01,8.091737285523490364e-01,7.979230718339077599e-01,7.864736260809432888e-01,7.748394651903428576e-01,7.630335114411161967e-01,7.510675631789146545e-01,7.389522977551886695e-01,7.266972547921166647e-01,7.143108058734514154e-01,7.018001179047135274e-01,6.891711187079457845e-01,6.764284749518856277e-01,6.635755942604680824e-01,6.506146652221659332e-01,6.375467508868333244e-01,6.243719529233004994e-01,6.110896645252885673e-01,5.976989298541551809e-01,5.841989256154791477e-01,5.705895755130500069e-01,5.568723000541622170e-01,5.430508919355749864e-01,5.291324909145195265e-01,5.151286123213257850e-01,5.010561619181419513e-01,4.869383496026585267e-01,4.728053995775717278e-01,4.586949497522768704e-01,4.446520426442637230e-01,4.307286365366372882e-01,4.169826087056891506e-01,4.034762778188165644e-01,3.902745319878038188e-01,3.774427019176829212e-01,3.650443546497436631e-01,3.531391949710060985e-01,3.417812461464274643e-01,3.310174425527749320e-01,3.208867122209355105e-01,3.114195678786212951e-01,3.026381711407328812e-01,2.945567936570526180e-01,2.871825750473555594e-01,2.805164702374752239e-01,2.745542853880982292e-01,2.692877175186588201e-01,2.647053335125412743e-01,2.607934455066898138e-01,2.575368589457688318e-01,2.549194852656730959e-01,2.529248227330705978e-01,2.515363165932777978e-01,2.507376139662729764e-01,2.505127306431415013e-01,2.508461468324703070e-01,2.517228476489229982e-01,2.531283222464104088e-01,2.550485333558143997e-01,2.574698668468503593e-01,2.603790689500515287e-01,2.637631770287878208e-01,2.676094483125360246e-01,2.719052897887033193e-01
7.075810420824258928e-01,7.065221474589411521e-01,7.056025630593391051e-01,7.049852990361846761e-01,7.048326695123585672e-01,7.053012335363515461e-01,7.065366760243817490e-01,7.086688436389367851e-01,7.118071530653826695e-01,7.160365795397912736e-01,7.214144118718824883e-01,7.279679275598458510e-01,7.356930996686102953e-01,7.445543983829002732e-01,7.544856975041542846e-01,7.653922428810627787e-01,7.771535891401735174e-01,7.896273662086195078e-01,8.026537006579376188e-01,8.160600908856169289e-01,8.296665208679354642e-01,8.432905951087015239e-01,8.567524870819447358e-01,8.698795137586555759e-01,8.825101779060772200e-01,8.944975554610976598e-01,9.057119448329248312e-01,9.160427358350083926e-01,9.253994955549351697e-01,9.337123046118132041e-01,9.409314081215184311e-01,9.470262700081670815e-01,9.519841363410896928e-01,9.558082229671650554e-01,9.585156451764959007e-01,9.601352032314115492e-01,9.607051283645158257e-01,9.602708805686859250e-01,9.588830735009775674e-01,9.565955844207786329e-01,9.534638894865488101e-01,9.495436479735275270e-01,9.448895438548486903e-01,9.395543802789814158e-01,9.335884121083147802e-01,9.270388939700374697e-01,9.199498161386815420e-01,9.123617978016427266e-01,9.043121065341997999e-01,8.958347737486307416e-01,8.869607780808163033e-01,8.777182717452886029e-01,8.681328284690530417e-01,8.582276954001311076e-01,8.480240351343880656e-01,8.375411475337563028e-01,8.267966642027438917e-01,8.158067112871996152e-01,8.045860386474747994e-01,7.931481154648349907e-01,7.815051940228322502e-01,7.696683448430801100e-01,7.576474676386140139e-01,7.454512837732609754e-01,7.330873171735859950e-01,7.205618720093674989e-01,7.078800169933187059e-01,6.950455878670689369e-01,6.820612214984836941e-01,6.689284368979262485e-01,6.556477801480846690e-01,6.422190513864548533e-01,6.286416320894079313e-01,6.149149293451090514e-01,6.010389498212044268e-01,5.870150089588518361e-01,5.728465699152593960e-01,5.585401916564877167e-01,5.441065467601992056e-01,5.295614482901785935e-01,5.149268041182344380e-01,5.002314000615937228e-01,4.855114047654855991e-01,4.708104939642359099e-01,4.561795129053732301e-01,4.416756339628635231e-01,4.273610187017343187e-01,4.133010528310965270e-01,3.995622785819454847e-01,3.862101912827962669e-01,3.733070865262205773e-01,3.609101370985249302e-01,3.490698463478241198e-01,3.378289737758504718e-01,3.272219695439166354e-01,3.172748979883231457e-01,3.080057847914104974e-01,2.994252931456833355e-01,2.915376220955074316e-01,2.843415230187105180e-01,2.778313437655058338e-01,2.719980295871488041e-01,2.668300314317830213e-01,2.623140923074616659e-01,2.584358992977714431e-01,2.551806016497369933e-01,2.525332041373271608e-01,2.504788501383395927e-01,2.490030112817875063e-01,2.480916009011853440e-01,2.477310275639045545e-01,2.479082032042941031e-01,2.486105182909054134e-01,2.498257942965692591e-01,2.515422216968182245e-01,2.537482898980303325e-01,2.564327139349732998e-01,2.595843614838383440e-01,2.631921826945963216e-01
6.946096994953564474e-01,6.938336140279992570e-01,6.931582657954162840e-01,6.927452537313578684e-01,6.927572207244879765e-01,6.933528672155742090e-01,6.946818302482334895e-01,6.968796391584333172e-01,7.000629658351253948e-01,7.043253822719318658e-01,7.097338207760715001e-01,7.163259033664950426e-01,7.241082680609806088e-01,7.330559731357089159e-01,7.431130088331051597e-01,7.541938925614365408e-01,7.661862716774417992e-01,7.789544106640546861e-01,7.923433997510922477e-01,8.061838920604973424e-01,8.202971577538852310e-01,8.345002371679034470e-01,8.486109804478761953e-01,8.624527778352284457e-01,8.758588109332187122e-01,8.886756888278652955e-01,9.007663713805206251e-01,9.120123226894483182e-01,9.223148780471802644e-01,9.315958453423714980e-01,9.397973947996953736e-01,9.468813177419352911e-01,9.528277547679081527e-01,9.576335060001344157e-01,9.613100410226455006e-01,9.638813244087816035e-01,9.653815652911665879e-01,9.658529874512378210e-01,9.653437012272300111e-01,9.639057414942909796e-01,9.615933183136804452e-01,9.584613096784572184e-01,9.545640099915249088e-01,9.499541341539294859e-01,9.446820658320583819e-01,9.387953298004166891e-01,9.323382622120864882e-01,9.253518490615010306e-01,9.178737016855301745e-01,9.099381385361128283e-01,9.015763442530984051e-01,8.928165798716163337e-01,8.836844214434883549e-01,8.742030081128282504e-01,8.643932844970235729e-01,8.542742258848937675e-01,8.438630381371559075e-01,8.331753271833572949e-01,8.222252356292475417e-01,8.110255462377358171e-01,7.995877539772511255e-01,7.879221100193740668e-01,7.760376426029018671e-01,7.639421611581568294e-01,7.516422515912096758e-01,7.391432722326893856e-01,7.264493616978821011e-01,7.135634717721384135e-01,7.004874403455549903e-01,6.872221211953638553e-01,6.737675887541625386e-01,6.601234364658622455e-01,6.462891863290095573e-01,6.322648240416122167e-01,6.180514680161534047e-01,6.036521707257835878e-01,5.890728369556855748e-01,5.743232257187351752e-01,5.594179818876476862e-01,5.443776221819016659e-01,5.292293814454874790e-01,5.140078135656133140e-01,4.987550416079061244e-01,4.835205676237615546e-01,4.683605857199140687e-01,4.533367904932943948e-01,4.385147309387997239e-01,4.239618181434945954e-01,4.097451426520795636e-01,3.959292846470364724e-01,3.825743012119203756e-01,3.697340496928355758e-01,3.574549599457644833e-01,3.457753105096593171e-01,3.347250053255140245e-01,3.243257980335821911e-01,3.145918763328088841e-01,3.055307015778039870e-01,2.971439973648757893e-01,2.894287916062871502e-01,2.823784348354854701e-01,2.759835387613382984e-01,2.702327998782306229e-01,2.651136909505587558e-01,2.606130172991740213e-01,2.567173448081518372e-01,2.534133128222011977e-01,2.506878483049658768e-01,2.485282985538839196e-01,2.469224991475252318e-01,2.458587922458957964e-01,2.453260083391523017e-01,2.453134223743823894e-01,2.458106930965396342e-01,2.468077925413970364e-01,2.482949309741394606e-01,2.502624811923098158e-01,2.527009049950676434e-01,2.556006837362870265e-01
6.810832984403418777e-01,6.805701144589422213e-01,6.801207098474555401e-01,6.798947245788405924e-01,6.800545383602470961e-01,6.807603819762079178e-01,6.821652418706226628e-01,6.844097639568348379e-01,6.876173734997007569e-01,6.918898270730944322e-01,6.973033995840038912e-01,7.039058845262812225e-01,7.117145501765710369e-01,7.207151503369908507e-01,7.308620380690723506e-01,7.420793777093559473e-01,7.542633975924604162e-01,7.672855765941342110e-01,7.809966148392196716e-01,7.952310052031283938e-01,8.098119994082760842e-01,8.245567516287597432e-01,8.392814237756034412e-01,8.538060494243501219e-01,8.679589763068464858e-01,8.815807384548801640e-01,8.945272460635903533e-01,9.066722213213870285e-01,9.179088491960656349e-01,9.281506510132977450e-01,9.373316234902285826e-01,9.454057150297906498e-01,9.523457334119070916e-01,9.581417939685598073e-01,9.627994248741560401e-01,9.663374467750983632e-01,9.687857384681767270e-01,9.701829898432950960e-01,9.705745291243657036e-01,9.700102949168905031e-01,9.685430059963092697e-01,9.662265643098673085e-01,9.631147102867214649e-01,9.592599349983272905e-01,9.547126414850440890e-01,9.495205379330803330e-01,9.437282384062937179e-01,9.373770423930102291e-01,9.305048622685925253e-01,9.231462675597249534e-01,9.153326162376141939e-01,9.070922457642146552e-01,8.984506998863993621e-01,8.894309708768023404e-01,8.800537407718712624e-01,8.703376089359536882e-01,8.602992968287458408e-01,8.499538240780408760e-01,8.393146528219359581e-01,8.283937997928512154e-01,8.172019178150543572e-01,8.057483503492133270e-01,7.940411645280748276e-01,7.820871698763458557e-01,7.698919316752426134e-01,7.574597897736673469e-01,7.447938955771112868e-01,7.318962819125466313e-01,7.187679823351450503e-01,7.054092179590610856e-01,6.918196706705959098e-01,6.779988610784707381e-01,6.639466470942805287e-01,6.496638538506050997e-01,6.351530370132436598e-01,6.204193688974026788e-01,6.054716201000956977e-01,5.903231893445197720e-01,5.749931127090451843e-01,5.595069634316397478e-01,5.438975391935951809e-01,5.282052299025080666e-01,5.124779697606867135e-01,4.967707052577531868e-01,4.811443549555509125e-01,4.656642928779075041e-01,4.503984465884764976e-01,4.354151530133013037e-01,4.207809494002106021e-01,4.065584862540296829e-01,3.928047315974905196e-01,3.795695952529455353e-01,3.668950464813889867e-01,3.548147389804005569e-01,3.433541041052308174e-01,3.325308335933320758e-01,3.223556504714392701e-01,3.128332608387218161e-01,3.039633867108412768e-01,2.957417965562119666e-01,2.881612709280217954e-01,2.812124618355449357e-01,2.748846235321418252e-01,2.691662077631340466e-01,2.640453277525970366e-01,2.595101025437736020e-01,2.555488973625588134e-01,2.521504772152760587e-01,2.493040907152603569e-01,2.469994998082361282e-01,2.452269691445712330e-01,2.439772266963975145e-01,2.432414050851192666e-01,2.430109711179102017e-01,2.432776493063297796e-01,2.440333436828603653e-01,2.452700610374328460e-01,2.469798377435134529e-01,2.491546716011874552e-01
6.670656414093123487e-01,6.667936767007650589e-01,6.665502484819461060e-01,6.664925131406691516e-01,6.667820102591941467e-01,6.675798956583881560e-01,6.690418982507737589e-01,6.713132001332364762e-01,6.745234541502440617e-01,6.787821566274379048e-01,6.841745843507408553e-01,6.907584841996283753e-01,6.985616720305548588e-01,7.075806561466565503e-01,7.177803523764273441e-01,7.290949053364927934e-01,7.414295771022300086e-01,7.546636135532057699e-01,7.686539532162035560e-01,7.832396062018532890e-01,7.982465039171199317e-01,8.134926049786356250e-01,8.287930396641892683e-01,8.439650839957706374e-01,8.588327740420074186e-01,8.732309994949095655e-01,8.870089507553522434e-01,9.000328330948170752e-01,9.121878022965280719e-01,9.233791159734527909e-01,9.335325312523019559e-01,9.425940108610723067e-01,9.505288245358635146e-01,9.573201503011065094e-01,9.629672903595314359e-01,9.674836193443655530e-01,9.708943792526025796e-01,9.732344265334892386e-01,9.745460237967716877e-01,9.748767527685590073e-01,9.742776077818172675e-01,9.728013114616274049e-01,9.705008773972053637e-01,9.674284293103372345e-01,9.636342731215133961e-01,9.591662077308000800e-01,9.540690524005575046e-01,9.483843632934783052e-01,9.421503087753188010e-01,9.354016722251113913e-01,9.281699519317817559e-01,9.204835297962835616e-01,9.123678836128247260e-01,9.038458213157971599e-01,8.949377194468866037e-01,8.856617519777125747e-01,8.760340993412325528e-01,8.660691309682635453e-01,8.557795577405227228e-01,8.451765535553419362e-01,8.342698476861535317e-01,8.230677918813917859e-01,8.115774082523194988e-01,7.998044260386021342e-01,7.877533173757658158e-01,7.754273442549634021e-01,7.628286309424618938e-01,7.499582781146602040e-01,7.368165366590774257e-01,7.234030601558887330e-01,7.097172550024972715e-01,6.957587453423939028e-01,6.815279656664412489e-01,6.670268864082596894e-01,6.522598664386295431e-01,6.372346108456666824e-01,6.219631932255793583e-01,6.064630803587435226e-01,5.907580762741919678e-01,5.748790861635693084e-01,5.588645930180561328e-01,5.427607457499107335e-01,5.266209800674649388e-01,5.105051328752682194e-01,4.944780640524477078e-01,4.786078587771238069e-01,4.629637389441678685e-01,4.476138529362934104e-01,4.326231305791078952e-01,4.180513807490682798e-01,4.039517748359324756e-01,3.903698073230258414e-01,3.773427654733180758e-01,3.648996841232923782e-01,3.530617172884292776e-01,3.418428303480890995e-01,3.312507057242120023e-01,3.212877587679635050e-01,3.119521747754879781e-01,3.032388979569249909e-01,2.951405246220634160e-01,2.876480727660221670e-01,2.807516168197221607e-01,2.744407888346150903e-01,2.687051558506184379e-01,2.635344881792406335e-01,2.589189355637027123e-01,2.548491284257505818e-01,2.513162203633090286e-01,2.483118862790103520e-01,2.458282884082145237e-01,2.438580203575403949e-01,2.423940372362899109e-01,2.414295781588760292e-01,2.409580858560862182e-01,2.409731268601583154e-01,2.414683147051465695e-01,2.424372377808738932e-01,2.438733928628166181e-01
6.526227535002009361e-01,6.525686610828836942e-01,6.525096645115517902e-01,6.525999374445230483e-01,6.529996202764560831e-01,6.538701975440055492e-01,6.553695329297419825e-01,6.576467534535602733e-01,6.608371929924388155e-01,6.650576129480233467e-01,6.704019136508247989e-01,6.769375337014957861e-01,6.847027064963449039e-01,6.937047050846453233e-01,7.039191604193170138e-01,7.152904867430089908e-01,7.277333944437216484e-01,7.411354185206506795e-01,7.553603430329226542e-01,7.702523614399455765e-01,7.856407819167787743e-01,8.013450671682078585e-01,8.171799907879317981e-01,8.329606967874211287e-01,8.485074647171119144e-01,8.636500082757753161e-01,8.782311683486823117e-01,8.921098995566417722e-01,9.051634899945064650e-01,9.172889942851678580e-01,9.284038979920866685e-01,9.384460648147333606e-01,9.473730453172715116e-01,9.551608462391377730e-01,9.618022722944828962e-01,9.673049579011394616e-01,9.716892050626068089e-01,9.749857365939891274e-01,9.772334622198540766e-01,9.784773400963669987e-01,9.787663993615179914e-01,9.781519716607758319e-01,9.766861623448419572e-01,9.744205761005357846e-01,9.714052978306658703e-01,9.676881180788960979e-01,9.633139834079031960e-01,9.583246458895554598e-01,9.527584820970494972e-01,9.466504504227390981e-01,9.400321558260281707e-01,9.329319928505294124e-01,9.253753405443727598e-01,9.173847864040572953e-01,9.089803603195086845e-01,9.001797634646456769e-01,8.909985809579480387e-01,8.814504707810929540e-01,8.715473248215037660e-01,8.612994009801475670e-01,8.507154280846408456e-01,8.398026879243855047e-01,8.285670811482573894e-01,8.170131861035574428e-01,8.051443219936943452e-01,7.929626299945014001e-01,7.804691881297769473e-01,7.676641776041744913e-01,7.545471196406785541e-01,7.411172022399331594e-01,7.273737150876090629e-01,7.133166073744795499e-01,6.989471767977477601e-01,6.842688878023311938e-01,6.692883028206979557e-01,6.540160920937464484e-01,6.384680667242468299e-01,6.226661582128921735e-01,6.066392493663402830e-01,5.904237506055517448e-01,5.740638170147333019e-01,5.576111186724098667e-01,5.411241112587559243e-01,5.246668034492811827e-01,5.083070759872685418e-01,4.921146650794421817e-01,4.761589690315805590e-01,4.605068623687025853e-01,4.452207006449501736e-01,4.303566719650810946e-01,4.159636037154267885e-01,4.020822748056738227e-01,3.887452256899019964e-01,3.759770098644688030e-01,3.637947973309601513e-01,3.522092245524314214e-01,3.412253851294072549e-01,3.308438669385528330e-01,3.210617601150112521e-01,3.118735816092585433e-01,3.032720826853755880e-01,2.952489234572577281e-01,2.877952123400070450e-01,2.809019179687226586e-01,2.745601671195914140e-01,2.687614451594873000e-01,2.634977163279627610e-01,2.587614804412906033e-01,2.545457810005413157e-01,2.508441776392348332e-01,2.476506936797116254e-01,2.449597474858445922e-01,2.427660744202383702e-01,2.410646445910816782e-01,2.398505802200712744e-01,2.391190753655576817e-01,2.388653198677135603e-01,2.390844287126770717e-01,2.397713775070291209e-01
6.378226018687609411e-01,6.379614884975357558e-01,6.380639068490686627e-01,6.382805763307095592e-01,6.387696996671078375e-01,6.396925059017453119e-01,6.412083884046883009e-01,6.434698204406094080e-01,6.466172529308904515e-01,6.507742107962773970e-01,6.560428043971764378e-01,6.624998605555539877e-01,6.701938537333249624e-01,6.791427832844241230e-01,6.893330991983190881e-01,7.007197289714912625e-01,7.132272052099352111e-01,7.267518405544807214e-01,7.411648468044353955e-01,7.563162517183488198e-01,7.720394324459034507e-01,7.881560607890237824e-01,8.044812436195744043e-01,8.208286420718605703e-01,8.370153650279913427e-01,8.528664546187201267e-01,8.682188120493175010e-01,8.829244486651227630e-01,8.968529871891701699e-01,9.098933788543129841e-01,9.219548412334210852e-01,9.329670567876336973e-01,9.428797018000949492e-01,9.516613982675773409e-01,9.592981968724165753e-01,9.657917072837387540e-01,9.711569931586573334e-01,9.754203441485113091e-01,9.786170270708803853e-01,9.807891044683014758e-01,9.819833923832065325e-01,9.822496116375919462e-01,9.816387693910236800e-01,9.802017912495218921e-01,9.779884094723947374e-01,9.750463003956103547e-01,9.714204543457425345e-01,9.671527541329942856e-01,9.622817335828982577e-01,9.568424852554097138e-01,9.508666861759671463e-01,9.443827116837942848e-01,9.374158099931322319e-01,9.299883133857196338e-01,9.221198657711637825e-01,9.138276503857617472e-01,9.051266054343289902e-01,8.960296193645510554e-01,8.865477011128497509e-01,8.766901240431222986e-01,8.664645454268099511e-01,8.558771062258107021e-01,8.449325186924483422e-01,8.336341519398466904e-01,8.219841281786491871e-01,8.099834447235403356e-01,7.976321390225562524e-01,7.849295156171111065e-01,7.718744547252829324e-01,7.584658215273387682e-01,7.447029925533238393e-01,7.305865100760381425e-01,7.161188663799372689e-01,7.013054067147860282e-01,6.861553226551032614e-01,6.706826872855664590e-01,6.549074620289577764e-01,6.388563851736008825e-01,6.225636384658748135e-01,6.060711852243423348e-01,5.894286854599302128e-01,5.726929226824769570e-01,5.559267224324259127e-01,5.391973991146943312e-01,5.225748267919652079e-01,5.061292805132787676e-01,4.899292273147779486e-01,4.740392533326699964e-01,4.585182939279837666e-01,4.434182915431081895e-01,4.287833499327061149e-01,4.146493942208888672e-01,4.010442939526623340e-01,3.879883679984299505e-01,3.754951689444262497e-01,3.635724398266978463e-01,3.522231444414277712e-01,3.414464894171723164e-01,3.312388771708245638e-01,3.215947500153731875e-01,3.125073044692410762e-01,3.039690698612432240e-01,2.959723562367096439e-01,2.885095836201547748e-01,2.815735085168615259e-01,2.751573649116816900e-01,2.692549366969473890e-01,2.638605770729126609e-01,2.589691885125807169e-01,2.545761747266649944e-01,2.506773739409146606e-01,2.472689808483360119e-01,2.443474628942702287e-01,2.419094751163706203e-01,2.399517765879487230e-01,2.384711505785641061e-01,2.374643298188564289e-01,2.369279277040802767e-01,2.368583758605581069e-01
6.227348063928276334e-01,6.230403592788119616e-01,6.232798173377863682e-01,6.236000037402519292e-01,6.241566681451581333e-01,6.251102149883028813e-01,6.266209681649015373e-01,6.288441445296397703e-01,6.319247339952593912e-01,6.359924996681420861e-01,6.411573158802468253e-01,6.475050543360729716e-01,6.550942088753035630e-01,6.639534183846124149e-01,6.740800068131227452e-01,6.854396113983082239e-01,6.979669179772529652e-01,7.115674688561466343e-01,7.261204574408297585e-01,7.414823778346895100e-01,7.574913596331898091e-01,7.739719903376501842e-01,7.907404115824225865e-01,8.076094713006983783e-01,8.243937217852448374e-01,8.409140722851707883e-01,8.570019326002080717e-01,8.725027188626783836e-01,8.872786317918097687e-01,9.012106585141589354e-01,9.141997890081914324e-01,9.261674750606697648e-01,9.370553914388020100e-01,9.468245844144147494e-01,9.554541110097288792e-01,9.629392831088379179e-01,9.692896341466175070e-01,9.745267231330404512e-01,9.786818823127202416e-01,9.817940020308322246e-01,9.839074307120354579e-01,9.850700505866688550e-01,9.853315721479968259e-01,9.847420733569534068e-01,9.833507941729988655e-01,9.812051836900659296e-01,9.783501863653037978e-01,9.748277456941305541e-01,9.706764981660608305e-01,9.659316272386609947e-01,9.606248460906043896e-01,9.547844786929806649e-01,9.484356108790934492e-01,9.416002862131426232e-01,9.342977252076474226e-01,9.265445505205986976e-01,9.183550049411939309e-01,9.097411530788822587e-01,9.007130615992237077e-01,8.912789565525882640e-01,8.814453598127554024e-01,8.712172099050974339e-01,8.605979755901498329e-01,8.495897734959818592e-01,8.381935038394915383e-01,8.264090207501284535e-01,8.142353557159307531e-01,8.016710138877447545e-01,7.887143629305478632e-01,7.753641321814785936e-01,7.616200353356242791e-01,7.474835219943656295e-01,7.329586515957353665e-01,7.180530673253824325e-01,7.027790281147353602e-01,6.871544353218047574e-01,6.712037699289838955e-01,6.549588400167735136e-01,6.384592315380955840e-01,6.217523624870420207e-01,6.048930644012161517e-01,5.879426558620772791e-01,5.709675265230902408e-01,5.540373095735390274e-01,5.372227751272937724e-01,5.205936161528350592e-01,5.042163140522547549e-01,4.881522595035078238e-01,4.724562681861159685e-01,4.571755780882679754e-01,4.423493557041791591e-01,4.280086831062058783e-01,4.141769547577445754e-01,4.008705863732188179e-01,3.880999285613535577e-01,3.758702827819065395e-01,3.641829319747517668e-01,3.530361183847359197e-01,3.424259225198618140e-01,3.323470168865323981e-01,3.227932844184860928e-01,3.137583036917562240e-01,3.052357111968668213e-01,2.972194556759419348e-01,2.897039615776969557e-01,2.826842188052471339e-01,2.761558148093830600e-01,2.701149232568932357e-01,2.645582613798906912e-01,2.594830259596854205e-01,2.548868158854230570e-01,2.507675474436206198e-01,2.471233669760004026e-01,2.439525642908812464e-01,2.412534892085725913e-01,2.390244728341718861e-01,2.372637545486596666e-01,2.359694152585291860e-01,2.351393171154491923e-01
6.074303427409768474e-01,6.078749639216187717e-01,6.082258489538809876e-01,6.086255139951344262e-01,6.092267656286303179e-01,6.101886324842787923e-01,6.116717789427216223e-01,6.138335622253393575e-01,6.168229225346570921e-01,6.207753152710316913e-01,6.258079029546576022e-01,6.320152212313219220e-01,6.394655179211472529e-01,6.481979370063313262e-01,6.582206821009162212e-01,6.695102484077298799e-01,6.820117611566841598e-01,6.956404051565699964e-01,7.102838776785583841e-01,7.258057486513970202e-01,7.420495709995849065e-01,7.588435522817696954e-01,7.760055782759771592e-01,7.933483706953822212e-01,8.106845648437331908e-01,8.278315079600822024e-01,8.446156037654389825e-01,8.608760612443536742e-01,8.764679435197132440e-01,8.912644531734077447e-01,9.051584309144344864e-01,9.180630826940889833e-01,9.299119841747200965e-01,9.406584393123580412e-01,9.502742906968130177e-01,9.587482927486978834e-01,9.660841649762679229e-01,9.722984417860793815e-01,9.774182287306845129e-01,9.814789637332337335e-01,9.845222670644543372e-01,9.865939470040839820e-01,9.877422104710664730e-01,9.880161105835435498e-01,9.874642470388814708e-01,9.861337210816767396e-01,9.840693351095793906e-01,9.813130178793258995e-01,9.779034498423742061e-01,9.738758592189408203e-01,9.692619577456642599e-01,9.640899852604807307e-01,9.583848340348470884e-01,9.521682266416935381e-01,9.454589247968262500e-01,9.382729507182662188e-01,9.306238068581808021e-01,9.225226841866696059e-01,9.139786534202147816e-01,9.049988376204882723e-01,8.955885684149798021e-01,8.857515317085425943e-01,8.754899121668487938e-01,8.648045489382542028e-01,8.536951179658615052e-01,8.421603586670640684e-01,8.301983644465068535e-01,8.178069570412475064e-01,8.049841635056906863e-01,7.917288110362346032e-01,7.780412480706832001e-01,7.639241895307535835e-01,7.493836693826835260e-01,7.344300651585309314e-01,7.190791379243829384e-01,7.033530097910084544e-01,6.872809830440016476e-01,6.709000948356451666e-01,6.542553037759445411e-01,6.373992232667615720e-01,6.203913521583297452e-01,6.032968037683390516e-01,5.861845929875366679e-01,5.691255984118340772e-01,5.521903613431182745e-01,5.354469068554467137e-01,5.189587689147724392e-01,5.027833724602717158e-01,4.869708765935525929e-01,4.715635244439750906e-01,4.565954876898752901e-01,4.420931461980157628e-01,4.280757113836802241e-01,4.145560872713072165e-01,4.015418640305865594e-01,3.890363510178496687e-01,3.770395753568953623e-01,3.655491934961597744e-01,3.545612836486328190e-01,3.440710044621319574e-01,3.340731187191778861e-01,3.245623902276706385e-01,3.155338677815867632e-01,3.069830728586250834e-01,2.989061083563274712e-01,2.912997048633759745e-01,2.841612193057776459e-01,2.774885987419127287e-01,2.712803199147856836e-01,2.655353131011679024e-01,2.602528769370308082e-01,2.554325892971193723e-01,2.510742179739600122e-01,2.471776338237408610e-01,2.437427281961342951e-01,2.407693358095948921e-01,2.382571637397744024e-01,2.362057268255341180e-01,2.346142895372659021e-01
5.919812390739624952e-01,5.925361868229587214e-01,5.929717765174165045e-01,5.934258391637876606e-01,5.940477757246561685e-01,5.949947083855233743e-01,5.964270641742583923e-01,5.985037402371916615e-01,6.013770311473453090e-01,6.051875214560297200e-01,6.100591593411961444e-01,6.160947283039761579e-01,6.233719228126189948e-01,6.319402108102152305e-01,6.418186321500916058e-01,6.529946391484158230e-01,6.654240360607739380e-01,6.790320213978970898e-01,6.937152838589415449e-01,7.093450525609475976e-01,7.257709582337151799e-01,7.428255267280823304e-01,7.603291015078568194e-01,7.780949789437294761e-01,7.959345395459856976e-01,8.136621692740033662e-01,8.310997864963290960e-01,8.480808201670212432e-01,8.644535209960414468e-01,8.800835272300338019e-01,8.948556474797583205e-01,9.086748623311224904e-01,9.214665820708044519e-01,9.331762280005856391e-01,9.437682282887196461e-01,9.532245354541769577e-01,9.615427812898066362e-01,9.687341866855880834e-01,9.748213392025548707e-01,9.798359414612353158e-01,9.838166197192905749e-01,9.868068657648942921e-01,9.888531677545867593e-01,9.900033680661906033e-01,9.903052696245675524e-01,9.898054972728536072e-01,9.885486081471145381e-01,9.865764349759249541e-01,9.839276388626236880e-01,9.806374433317939232e-01,9.767375190091088788e-01,9.722559879366091673e-01,9.672175178327915290e-01,9.616434792032575452e-01,9.555521417245512739e-01,9.489588904331071051e-01,9.418764466803123403e-01,9.343150833535343036e-01,9.262828283636123095e-01,9.177856547681817467e-01,9.088276600842695174e-01,8.994112413107007153e-01,8.895372758943956848e-01,8.792053222638028798e-01,8.684138564790454540e-01,8.571605637717901738e-01,8.454427048972859016e-01,8.332575767791481347e-01,8.206030842425086069e-01,8.074784339738155792e-01,7.938849525303666166e-01,7.798270168062316765e-01,7.653130679163299144e-01,7.503566588916980029e-01,7.349774649033303797e-01,7.192021651999229714e-01,7.030650928524569965e-01,6.866085464626534574e-01,6.698826712685620466e-01,6.529448475877759339e-01,6.358585709717158307e-01,6.186918655014911339e-01,6.015153304602142148e-01,5.843999704012998730e-01,5.674149893634262698e-01,5.506257351235770425e-01,5.340919578083126451e-01,5.178665035303618991e-01,5.019945069870367371e-01,4.865130879719397061e-01,4.714515053640522813e-01,4.568316851417727475e-01,4.426690191132959251e-01,4.289733274676320596e-01,4.157498874797264654e-01,4.030004481326585619e-01,3.907241714960084655e-01,3.789184627357877755e-01,3.675796691523378623e-01,3.567036433630387804e-01,3.462861763357051315e-01,3.363233127467530337e-01,3.268115647424802983e-01,3.177480413966868866e-01,3.091305107258928153e-01,3.009574096742388960e-01,2.932278155012230103e-01,2.859413898449124636e-01,2.790983046196577333e-01,2.726991569754125821e-01,2.667448788623011380e-01,2.612366453296565694e-01,2.561757845352811702e-01,2.515636915238809723e-01,2.474017471219220887e-01,2.436912427561423733e-01,2.404333116027895512e-01,2.376288661858639017e-01,2.352785423406986154e-01
5.764602676386416658e-01,5.770958042622593709e-01,5.775884010850770300e-01,5.780708596428596469e-01,5.786887420471428234e-01,5.795967564094322011e-01,5.809545297031925015e-01,5.829219046080340583e-01,5.856539303500732929e-01,5.892957436067863819e-01,5.939775520492773797e-01,5.998099384621484731e-01,6.068796967242549023e-01,6.152463921693678284e-01,6.249398087346474950e-01,6.359584054218330174e-01,6.482688572327733878e-01,6.618067037455659385e-01,6.764780750661781861e-01,6.921624133273885926e-01,7.087160613756573468e-01,7.259765515729813545e-01,7.437673989499646865e-01,7.619031857500095928e-01,7.801947193521143742e-01,7.984540524583519927e-01,8.164991722953276465e-01,8.341581927372963001e-01,8.512729175189590602e-01,8.677016815436311425e-01,8.833214180572686036e-01,8.980289395770416627e-01,9.117414576172474527e-01,9.243963985293621732e-01,9.359505987529025406e-01,9.463789815990618637e-01,9.556728290564366901e-01,9.638377662307349159e-01,9.708915735624794596e-01,9.768619339029777082e-01,9.817842090903560193e-01,9.856993251854732074e-01,9.886518283349287062e-01,9.906881555667199635e-01,9.918551477716707199e-01,9.921988165471299359e-01,9.917633631092860336e-01,9.905904365088017416e-01,9.887186100810289036e-01,9.861830494040555450e-01,9.830153418490701345e-01,9.792434568018530960e-01,9.748918064585947452e-01,9.699813793737203094e-01,9.645299222885864721e-01,9.585521498570825916e-01,9.520599664165255716e-01,9.450626886977714358e-01,9.375672631540532542e-01,9.295784762917528310e-01,9.210991609221701459e-01,9.121304055492165386e-01,9.026717780773519939e-01,8.927215785330133713e-01,8.822771383244155663e-01,8.713351853862648655e-01,8.598922948964440316e-01,8.479454435019088132e-01,8.354926804430673482e-01,8.225339209119417738e-01,8.090718548844686442e-01,7.951129484213966814e-01,7.806684946585911167e-01,7.657556500648441400e-01,7.503983709133521529e-01,7.346281493153999920e-01,7.184844422872487257e-01,7.020146955626094254e-01,6.852738890192281440e-01,6.683235724853511250e-01,6.512304152684420533e-01,6.340643521027098384e-01,6.168964619090187007e-01,5.997967532347382447e-01,5.828320436198608512e-01,5.660641065171726494e-01,5.495482217151109738e-01,5.333322113674724418e-01,5.174559842946903077e-01,5.019515566076003799e-01,4.868434747909927696e-01,4.721495422014777565e-01,4.578817416290034137e-01,4.440472523308664488e-01,4.306494753668995701e-01,4.176890014643068749e-01,4.051644770108014937e-01,3.930733432561916429e-01,3.814124397629197194e-01,3.701784749935609908e-01,3.593683748051910154e-01,3.489795241152982563e-01,3.390099188696397703e-01,3.294582454428125473e-01,3.203239034068057212e-01,3.116069857433769741e-01,3.033082284420268726e-01,2.954289392792636693e-01,2.879709135774908835e-01,2.809363429782552601e-01,2.743277217675138546e-01,2.681477540591105657e-01,2.623992641564704131e-01,2.570851116414650250e-01,2.522081121502607326e-01,2.477709643561578357e-01,2.437761833592861360e-01,2.402260404568282992e-01,2.371225091135600871e-01
5.609406325401726789e-01,5.616261778668615312e-01,5.621472492296815116e-01,5.626313091199910410e-01,5.632196784942457013e-01,5.640641690107068840e-01,5.653230627958181209e-01,5.671565628850563368e-01,5.697218730253342800e-01,5.731680945202068944e-01,5.776311479587082909e-01,5.832289371891011820e-01,5.900569706260282432e-01,5.981846405328034022e-01,6.076523347561246791e-01,6.184695187976867459e-01,6.306138811349092377e-01,6.440315840208318265e-01,6.586386086983159194e-01,6.743231313500842594e-01,6.909488174164550855e-01,7.083588800943025898e-01,7.263807163186338789e-01,7.448309120718868970e-01,7.635203994171774200e-01,7.822595503186712262e-01,8.008630063847235192e-01,8.191540677078478216e-01,8.369684959546083158e-01,8.541576243494420906e-01,8.705907075704220066e-01,8.861564852085414001e-01,9.007639709066622702e-01,9.143425135151566074e-01,9.268412049750842652e-01,9.382277311038208500e-01,9.484867755109145371e-01,9.576180935478506573e-01,9.656343730003962289e-01,9.725589920511320541e-01,9.784237740259184024e-01,9.832668238963406804e-01,9.871305147850009121e-01,9.900596750963697179e-01,9.921000095174076217e-01,9.932967709471930418e-01,9.936936861415855970e-01,9.933321259761316302e-01,9.922505019869582998e-01,9.904838642902005219e-01,9.880636719828074233e-01,9.850177054433068013e-01,9.813700902505327894e-01,9.771414043512716141e-01,9.723488432592934938e-01,9.670064221069122334e-01,9.611251979874586571e-01,9.547135009674651007e-01,9.477771672094386091e-01,9.403197726740887274e-01,9.323428707380332359e-01,9.238462416470398786e-01,9.148281658767614122e-01,9.052857369817577382e-01,8.952152320709266808e-01,8.846125592193460063e-01,8.734738003432391817e-01,8.617958646451664428e-01,8.495772609645788620e-01,8.368189866413509037e-01,8.235255155541577610e-01,8.097058492041401268e-01,7.953745733980057686e-01,7.805528417483799108e-01,7.652691895611068995e-01,7.495600722856399223e-01,7.334700261829838475e-01,7.170513686574794265e-01,7.003633926726287040e-01,6.834710610080354520e-01,6.664432650124701984e-01,6.493507690961023426e-01,6.322640056586352753e-01,6.152509064830395946e-01,5.983749512386729030e-01,5.816935827903575440e-01,5.652570890660609804e-01,5.491079923395210116e-01,5.332809296936098509e-01,5.178029619981464604e-01,5.026942182324785069e-01,4.879687686841605587e-01,4.736356224199844700e-01,4.596997573878812693e-01,4.461631108504502397e-01,4.330254792851072621e-01,4.202852971754360012e-01,4.079402812650549381e-01,3.959879399673467137e-01,3.844259566762647795e-01,3.732524611813637927e-01,3.624662059793128388e-01,3.520666647702736518e-01,3.420540695358038064e-01,3.324294008915416043e-01,3.231943443249103987e-01,3.143512227644794654e-01,3.059029138726465646e-01,2.978527586125859217e-01,2.902044660604478632e-01,2.829620181224151154e-01,2.761295767577174320e-01,2.697113954752114462e-01,2.637117362297800582e-01,2.581347923625472163e-01,2.529846178750390084e-01,2.482650630749393406e-01,2.439797164571207988e-01,2.401318525693109107e-01
5.454956549989368186e-01,5.461999448330616680e-01,5.467202684386616163e-01,5.471784751115131851e-01,5.477112746433772106e-01,5.484671271322176800e-01,5.496024455666642661e-01,5.512772204133737919e-01,5.536502127152760355e-01,5.568738938441425423e-01,5.610893336297195777e-01,5.664212521103717535e-01,5.729734522114995343e-01,5.808248405879677945e-01,5.900262218169749495e-01,6.005980180923383704e-01,6.125290243381250610e-01,6.257762596946278011e-01,6.402659236010053156e-01,6.558954114577634220e-01,6.725362943886085132e-01,6.900381230156465984e-01,7.082328790565171062e-01,7.269398729596523445e-01,7.459708719623368012e-01,7.651352412984795404e-01,7.842448913765293073e-01,8.031188444018698691e-01,8.215872632986022106e-01,8.394948215867390484e-01,8.567033325117385800e-01,8.730935965556093636e-01,8.885664659634711082e-01,9.030431608784772468e-01,9.164649023076637535e-01,9.287919511792832594e-01,9.400021594956357029e-01,9.500891488811952224e-01,9.590602340196671127e-01,9.669342043261115460e-01,9.737390677816734064e-01,9.795098474327921245e-01,9.842865049670336264e-01,9.881120483408737387e-01,9.910308628546663501e-01,9.930872883715179400e-01,9.943244503646375687e-01,9.947833397185555926e-01,9.945021260351878389e-01,9.935156817236339144e-01,9.918552893191358022e-01,9.895485020777537999e-01,9.866191276279965283e-01,9.830873059731499719e-01,9.789696560553018401e-01,9.742794690538341129e-01,9.690269312712770367e-01,9.632193645772063606e-01,9.568614777023314311e-01,9.499556270038459482e-01,9.425020904827385859e-01,9.344993636397788128e-01,9.259444899842089738e-01,9.168334423560130508e-01,9.071615732782631891e-01,8.969241527825688731e-01,8.861170098930578609e-01,8.747372884974070617e-01,8.627843190245947369e-01,8.502605937999389019e-01,8.371728163109197762e-01,8.235329738997109184e-01,8.093593617346098723e-01,7.946774666658761310e-01,7.795206071144842319e-01,7.639302241953147554e-01,7.479557337934059635e-01,7.316538810961454864e-01,7.150875865295864831e-01,6.983243295380159310e-01,6.814341750790794405e-01,6.644875962694212213e-01,6.475532754547785874e-01,6.306960689326234215e-01,6.139752969694095563e-01,5.974434756748622233e-01,5.811455499728803709e-01,5.651186281855694604e-01,5.493921682939885143e-01,5.339885302289417712e-01,5.189237900496446176e-01,5.042087094446424667e-01,4.898497640414327670e-01,4.758501518873700653e-01,4.622107246564022276e-01,4.489308050465278255e-01,4.360088720849187860e-01,4.234431104521556577e-01,4.112318302056314212e-01,3.993737697729513592e-01,3.878682984726002370e-01,3.767155358777568575e-01,3.659164048056176566e-01,3.554726332078022577e-01,3.453867182333990593e-01,3.356618635727836031e-01,3.263018990875183878e-01,3.173111898180103196e-01,3.086945397984650064e-01,3.004570947157721994e-01,2.926042463155250073e-01,2.851415405592735985e-01,2.780745908404719247e-01,2.714089970389617079e-01,2.651502708037004052e-01,2.593037671725582638e-01,2.538746224421815634e-01,2.488676980701305108e-01,2.442875303094901585e-01
5.301984574138036699e-01,5.308897061921450389e-01,5.313795198858904945e-01,5.317838962935702574e-01,5.322345974476720976e-01,5.328763058436669642e-01,5.338630639413962653e-01,5.353540918595365294e-01,5.375091168578692846e-01,5.404833821638320712e-01,5.444225294366844548e-01,5.494575665039047596e-01,5.557001383120857563e-01,5.632383133607544723e-01,5.721330800818298368e-01,5.824157183824074657e-01,5.940861723963212215e-01,6.071125036294231503e-01,6.214314519452385221e-01,6.369500783981932868e-01,6.535484120858588986e-01,6.710829761434810026e-01,6.893910285678398475e-01,7.082953239915471544e-01,7.276091843682476190e-01,7.471416604912365367e-01,7.667025722268151489e-01,7.861072323734905609e-01,8.051806855391016038e-01,8.237613272023799338e-01,8.417038066877178260e-01,8.588811584844119329e-01,8.751861465973043153e-01,8.905318440805932712e-01,9.048515026279269069e-01,9.180977936126871741e-01,9.302415213870783850e-01,9.412699216100219868e-01,9.511846620563679799e-01,9.599996613862001871e-01,9.677388336951102676e-01,9.744338545324791045e-01,9.801220287929212072e-01,9.848443237944760620e-01,9.886436132101799057e-01,9.915631604141326161e-01,9.936453541280941826e-01,9.949306956652879119e-01,9.954570259819504052e-01,9.952589723589294612e-01,9.943675888462593093e-01,9.928101614588392687e-01,9.906101482443564477e-01,9.877872254188401202e-01,9.843574134129332576e-01,9.803332605259116317e-01,9.757240666006691265e-01,9.705361344028439197e-01,9.647730419393482082e-01,9.584359345411876951e-01,9.515238409250111884e-01,9.440340223779964957e-01,9.359623683662426918e-01,9.273038548429004546e-01,9.180530828098626417e-01,9.082049136313583571e-01,8.977552134979576159e-01,8.867017116064844773e-01,8.750449645640672180e-01,8.627894032036066418e-01,8.499444181337857396e-01,8.365254187149772092e-01,8.225547797528784955e-01,8.080625751531494982e-01,7.930869928018290382e-01,7.776743343629852756e-01,7.618785301336733484e-01,7.457601421150514831e-01,7.293848836677535585e-01,7.128217433544208337e-01,6.961408532898677448e-01,6.794112780650415351e-01,6.626989115369585903e-01,6.460646530340641291e-01,6.295629951981989159e-01,6.132411009736088436e-01,5.971383878209671758e-01,5.812865833738970478e-01,5.657101760664013934e-01,5.504271604499560988e-01,5.354499698571538735e-01,5.207864957631170855e-01,5.064411091753050487e-01,4.924156199907631648e-01,4.787101315672722124e-01,4.653237670009768290e-01,4.522552592469732957e-01,4.395034087394864009e-01,4.270674197568426478e-01,4.149471310343257890e-01,4.031431578189327292e-01,3.916569624431122110e-01,3.804908692292310879e-01,3.696480376431699466e-01,3.591324054726825477e-01,3.489486116674634930e-01,3.391019064970418051e-01,3.295980549398138670e-01,3.204432377411708388e-01,3.116439533678377338e-01,3.032069231178634028e-01,2.951390008905432349e-01,2.874470885446706037e-01,2.801380573444381406e-01,2.732186756807361006e-01,2.666955430360702373e-01,2.605750300125435071e-01,2.548632241469454551e-01,2.495658811810796407e-01
5.151216475629341041e-01,5.157677144245348400e-01,5.161968698483703211e-01,5.165190578649685449e-01,5.168607904395287056e-01,5.173625770436293125e-01,5.181756133070888337e-01,5.194578090957505667e-01,5.213692760841028839e-01,5.240674308516785063e-01,5.277018991436386308e-01,5.324094278817474990e-01,5.383090219419223166e-01,5.454975214169149877e-01,5.540458216111443512e-01,5.639959127571662068e-01,5.753588806237920350e-01,5.881139647963989914e-01,6.022087210764813792e-01,6.175602812408856890e-01,6.340576506086730291e-01,6.515649347411438530e-01,6.699253441280053067e-01,6.889657923732013245e-01,7.085018809974487075e-01,7.283430535395867267e-01,7.482977033417647084e-01,7.681780325974569834e-01,7.878044835408457569e-01,8.070095940767284537e-01,8.256411672882320030e-01,8.435646844948352374e-01,8.606649322342868613e-01,8.768468522582960611e-01,8.920356582552925184e-01,9.061762918996359994e-01,9.192323128679352751e-01,9.311843321135977458e-01,9.420281049438289367e-01,9.517724007708366907e-01,9.604367606701376125e-01,9.680492432108303014e-01,9.746442447241806528e-01,9.802604635952264500e-01,9.849390605928791675e-01,9.887220498593765061e-01,9.916509389300682820e-01,9.937656217929706770e-01,9.951035170296940180e-01,9.956989337810220331e-01,9.955826417224051816e-01,9.947816173180342725e-01,9.933189371199745432e-01,9.912137894782960812e-01,9.884815783701096370e-01,9.851340967672029825e-01,9.811797516810076836e-01,9.766238284102727318e-01,9.714687872554308434e-01,9.657145917518943357e-01,9.593590730019233570e-01,9.523983396031591164e-01,9.448272465629342642e-01,9.366399389345025916e-01,9.278304860892832018e-01,9.183936198379744065e-01,9.083255833150839509e-01,8.976250870695567929e-01,8.862943539530047099e-01,8.743402156263179181e-01,8.617752022484361785e-01,8.486185457961112899e-01,8.348970003082291091e-01,8.206453737789524139e-01,8.059066710305778924e-01,7.907317679810631494e-01,7.751785759021661004e-01,7.593107064108730597e-01,7.431957069582898479e-01,7.269029924418758393e-01,7.105016404864448187e-01,6.940582371955595908e-01,6.776349525965923437e-01,6.612879922114812681e-01,6.450665201077548927e-01,6.290120896258422079e-01,6.131585614322471178e-01,5.975324432266285735e-01,5.821535562853423773e-01,5.670359220303009540e-01,5.521887647169745339e-01,5.376175399721550008e-01,5.233249185631608791e-01,5.093116762240625928e-01,4.955774604607913192e-01,4.821214221032338876e-01,4.689427121643032770e-01,4.560408533105987372e-01,4.434160004516408682e-01,4.310691073500275694e-01,4.190020165168903410e-01,4.072174886820810191e-01,3.957191863814271127e-01,3.845116241049658101e-01,3.736000952897649552e-01,3.629905844003572524e-01,3.526896705189845882e-01,3.427044273096241378e-01,3.330423229295281784e-01,3.237111224227642303e-01,3.147187943134863719e-01,3.060734224893893463e-01,2.977831239950756159e-01,2.898559730103998922e-01,2.822999310436227205e-01,2.751227832008432128e-01,2.683320802830894691e-01,2.619350863957768394e-01,2.559387317202373446e-01
5.003370042772399273e-01,5.009055617334418065e-01,5.012436810512354013e-01,5.014550861949651495e-01,5.016607716639456260e-01,5.019967104190730112e-01,5.026108020192509018e-01,5.036591265951020358e-01,5.053016107143352142e-01,5.076972488140302220e-01,5.109990560586079589e-01,5.153489527908937662e-01,5.208727951375166088e-01,5.276757693499065649e-01,5.358383583750885304e-01,5.454130680398853182e-01,5.564220680251414919e-01,5.688558612306610085e-01,5.826730466034522049e-01,5.978011879569756770e-01,6.141387479846193154e-01,6.315579958626724721e-01,6.499087516530454023e-01,6.690227938389110562e-01,6.887187298267402058e-01,7.088071144389288536e-01,7.290955987834677465e-01,7.493939010641057497e-01,7.695184107533173945e-01,7.892962663033700199e-01,8.085687819427351819e-01,8.271941385297918448e-01,8.450492942627214621e-01,8.620311107375260296e-01,8.780567261575692450e-01,8.930632386054911942e-01,9.070067868856942495e-01,9.198611337850151060e-01,9.316158664852514093e-01,9.422743316029261740e-01,9.518514186611414241e-01,9.603712967665456457e-01,9.678651961262346726e-01,9.743693101381795119e-01,9.799228764507408318e-01,9.845664778321359112e-01,9.883405869663201004e-01,9.912843642282029855e-01,9.934347046830162009e-01,9.948255203623823650e-01,9.954872364384169670e-01,9.954464752090853574e-01,9.947258996409378273e-01,9.933441883048512722e-01,9.913161155390719514e-01,9.886527142045721250e-01,9.853615030778656303e-01,9.814467663807241449e-01,9.769098788074961348e-01,9.717496753081501515e-01,9.659628704224854090e-01,9.595445366878299076e-01,9.524886550268453211e-01,9.447887514335870929e-01,9.364386329977557599e-01,9.274332315932665161e-01,9.177695547573814228e-01,9.074477300490814136e-01,8.964721117238314552e-01,8.848523980064122441e-01,8.726046858401158568e-01,8.597523712211506686e-01,8.463267915460552793e-01,8.323675065340401247e-01,8.179221300889106816e-01,8.030456585245897561e-01,7.877992889909745111e-01,7.722487797832574552e-01,7.564624621841748997e-01,7.405090607372984968e-01,7.244555057282503485e-01,7.083649223876045120e-01,6.922949557372919394e-01,6.762965435353217591e-01,6.604131919109433868e-01,6.446807498691294880e-01,6.291276293545685627e-01,6.137753831677661420e-01,5.986395358763211272e-01,5.837305615760222111e-01,5.690549131975671804e-01,5.546160263458158601e-01,5.404152419414381958e-01,5.264526127027724378e-01,5.127275764803383984e-01,4.992394935227900676e-01,4.859880547030979714e-01,4.729735739511156112e-01,4.601971813120741550e-01,4.476609339574306179e-01,4.353678618432362257e-01,4.233219631497917024e-01,4.115281626093858502e-01,3.999922436639207213e-01,3.887207633030971832e-01,3.777209565389003099e-01,3.670006358314551465e-01,3.565680894099718112e-01,3.464319813189927211e-01,3.366012551386450835e-01,3.270850426458588034e-01,3.178925781682115370e-01,3.090331190018576479e-01,3.005158719919343580e-01,2.923499261841224772e-01,2.845441913299141534e-01,2.771073419496167256e-01,2.700477666135533972e-01,2.633735220834267921e-01
4.859151659198674422e-01,4.863738702921516222e-01,4.865905052312022305e-01,4.866624440191108514e-01,4.867049315767518203e-01,4.868490738705489318e-01,4.872390539500703333e-01,4.880286255035621301e-01,4.893769756074083932e-01,4.914440872838646834e-01,4.943857669187619042e-01,4.983485289959126430e-01,5.034645487719492385e-01,5.098469007569629285e-01,5.175852961743018232e-01,5.267425157299254757e-01,5.373517056523771096e-01,5.494146665172401356e-01,5.629012180301519175e-01,5.777496714815762990e-01,5.938683881601042325e-01,6.111383499227949212e-01,6.294166205737569131e-01,6.485405365573163605e-01,6.683324350402204406e-01,6.886047083361506171e-01,7.091649666004765651e-01,7.298210957350159678e-01,7.503860136271323089e-01,7.706819536357214506e-01,7.905441375074429011e-01,8.098237381748940589e-01,8.283900735104956503e-01,8.461320124867093284e-01,8.629586129554017715e-01,8.787990434182255672e-01,8.936018682164635907e-01,9.073337955724908310e-01,9.199780004752503570e-01,9.315321396545646060e-01,9.420061744250832758e-01,9.514201099500647629e-01,9.598017476740426934e-01,9.671845326274910448e-01,9.736055603613290588e-01,9.791037906939716873e-01,9.837184983670226313e-01,9.874879750227903985e-01,9.904484833218688555e-01,9.926334529595632894e-01,9.940729000399741722e-01,9.947930457538198823e-01,9.948161074484940247e-01,9.941602347244209437e-01,9.928395648073420343e-01,9.908643747506060695e-01,9.882413126096976086e-01,9.849736951866824297e-01,9.810618658372696199e-01,9.765036117168857110e-01,9.712946452193974567e-01,9.654291586688901194e-01,9.589004639102394201e-01,9.517017285726502296e-01,9.438268176738235926e-01,9.352712421719184821e-01,9.260332045755415020e-01,9.161147157977221900e-01,9.055227378942554139e-01,8.942702860489137873e-01,8.823774032789647448e-01,8.698719070508894591e-01,8.567898030732123971e-01,8.431752722436610670e-01,8.290801645104719508e-01,8.145629775361954428e-01,7.996873538381712443e-01,7.845201891107140835e-01,7.691294960803193304e-01,7.535822021858626929e-01,7.379420684046390511e-01,7.222678986726666084e-01,7.066121683984367685e-01,6.910201450392227107e-01,6.755295143311460526e-01,6.601704726903100395e-01,6.449662068487509448e-01,6.299336593412899754e-01,6.150844726137100205e-01,6.004260121172371178e-01,5.859623852591289150e-01,5.716953938680610081e-01,5.576253790579259739e-01,5.437519363730843880e-01,5.300744944212445464e-01,5.165927613934909735e-01,5.033070511695312277e-01,4.902185047317251798e-01,4.773292241322057983e-01,4.646423360271457748e-01,4.521620004602162068e-01,4.398933786524176770e-01,4.278425714055251183e-01,4.160165375960571676e-01,4.044230002729591877e-01,3.930703461503599061e-01,3.819675228331507189e-01,3.711239369228916951e-01,3.605493552021989956e-01,3.502538103564123428e-01,3.402475121285449822e-01,3.305407643850956090e-01,3.211438882672047468e-01,3.120671513887401383e-01,3.033207028991881660e-01,2.949145141377311208e-01,2.868583245518212532e-01,2.791615925283758015e-01,2.718334507801308808e-01
4.719253229976324571e-01,4.722419857763101025e-01,4.723067782099463208e-01,4.722106274510684543e-01,4.720628321503552161e-01,4.719893346207451046e-01,4.721302112730932365e-01,4.726364175659137912e-01,4.736658645276093371e-01,4.753789438195940575e-01,4.779336546694949450e-01,4.814805162170190389e-01,4.861574705347513348e-01,4.920849929175046267e-01,4.993616257081902043e-01,5.080601394340378274e-01,5.182245006840657808e-01,5.298677911252018813e-01,5.429711782644525142e-01,5.574839885993462252e-01,5.733248807014696968e-01,5.903840628271819213e-01,6.085264501132319204e-01,6.275956133036567630e-01,6.474183367984627235e-01,6.678095804836351457e-01,6.885776283810581821e-01,7.095292078904155142e-01,7.304743757003236970e-01,7.512309889923513007e-01,7.716286114068092727e-01,7.915117400061720820e-01,8.107422795502025048e-01,8.292012311486566256e-01,8.467896013114087905e-01,8.634285724314950672e-01,8.790590051291752305e-01,8.936403655030769055e-01,9.071491855876647747e-01,9.195771731577410124e-01,9.309290878884771692e-01,9.412204956076949403e-01,9.504755020878836724e-01,9.587245538126855093e-01,9.660023767685872453e-01,9.723461068666793272e-01,9.777936482746329983e-01,9.823822797320297395e-01,9.861475146061259300e-01,9.891222085565785083e-01,9.913358995227606885e-01,9.928143584239942365e-01,9.935793253935213398e-01,9.936484053353621393e-01,9.930350977824092817e-01,9.917489390584783848e-01,9.897957391754034218e-01,9.871779012641361817e-01,9.838948171479601212e-01,9.799433383733238134e-01,9.753183270135921124e-01,9.700132941682125809e-01,9.640211355281165240e-01,9.573349718498407324e-01,9.499490968886078468e-01,9.418600256807674320e-01,9.330676218500332242e-01,9.235762643603145916e-01,9.133959933806661269e-01,9.025435544093046714e-01,8.910432434481305730e-01,8.789274485122992031e-01,8.662367886638614456e-01,8.530197742363293534e-01,8.393319513416599431e-01,8.252345466875639080e-01,8.107926878160898188e-01,7.960733289275324642e-01,7.811430527605200957e-01,7.660659361244808174e-01,7.509016568916654366e-01,7.357039856373369657e-01,7.205197529456718319e-01,7.053883240239603447e-01,6.903415563007858635e-01,6.754041714878568081e-01,6.605944457900154720e-01,6.459251112340250733e-01,6.314043649965075389e-01,6.170368978861221487e-01,6.028248730632473906e-01,5.887688075105537155e-01,5.748683286563024408e-01,5.611227950911144013e-01,5.475317827795188608e-01,5.340954466073398743e-01,5.208147720568304662e-01,5.076917340075302043e-01,4.947293798928949493e-01,4.819318533879397015e-01,4.693043730148463433e-01,4.568531779414410909e-01,4.445854510915474012e-01,4.325092276606093966e-01,4.206332953293825394e-01,4.089670909320314296e-01,3.975205970658087784e-01,3.863042411093882689e-01,3.753287983167531983e-01,3.646053000402083577e-01,3.541449476767445925e-01,3.439590325964601569e-01,3.340588620736910652e-01,3.244556910786827730e-01,3.151606596817951300e-01,3.061847357587498819e-01,2.975386626527743439e-01,2.892329114387158784e-01,2.812776374385249079e-01
4.584349162172456915e-01,4.585776754842505465e-01,4.584605187648598812e-01,4.581678660779990309e-01,4.578029084322930986e-01,4.574861622289727037e-01,4.573532386859138765e-01,4.575518500899113938e-01,4.582381152020177928e-01,4.595722666775720056e-01,4.617139013076678733e-01,4.648169466042363918e-01,4.690245422757734484e-01,4.744640503959325351e-01,4.812424120408412831e-01,4.894420600670520982e-01,4.991175775363826395e-01,5.102932599262498536e-01,5.229616983605476221e-01,5.370834530235966131e-01,5.525878335790810336e-01,5.693747500289552121e-01,5.873175463146286246e-01,6.062666832148946305e-01,6.260540994589085528e-01,6.464980525730570360e-01,6.674082251955155698e-01,6.885908789710067923e-01,7.098538463901002959e-01,7.310111699882188008e-01,7.518872264287908003e-01,7.723202079199045222e-01,7.921648726041076172e-01,8.112945163655557179e-01,8.296021583656385534e-01,8.470009692713171834e-01,8.634240027196291578e-01,8.788233157180636024e-01,8.931685816217045382e-01,9.064453098171093570e-01,9.186527895529391641e-01,9.298018721927436836e-01,9.399126975591577393e-01,9.490124572384714963e-01,9.571332720662972804e-01,9.643102438572441759e-01,9.705797240143877458e-01,9.759778250310088277e-01,9.805391859382992514e-01,9.842959900847949584e-01,9.872772236472038276e-01,9.895081561396957825e-01,9.910100198898016410e-01,9.917998638066345407e-01,9.918905574813883241e-01,9.912909243390629621e-01,9.900059867421742155e-01,9.880373111111894202e-01,9.853834466932783753e-01,9.820404569340555057e-01,9.780025467611668244e-01,9.732627916676952484e-01,9.678139744220577434e-01,9.616495316714158692e-01,9.547646049278345481e-01,9.471571780571261812e-01,9.388292666802550146e-01,9.297881050273297809e-01,9.200472551121084974e-01,9.096275452085803570e-01,8.985577340398996915e-01,8.868747985627623009e-01,8.746237604981331737e-01,8.618570011962757293e-01,8.486330638363522860e-01,8.350150001382519172e-01,8.210683762036802280e-01,8.068590979678067487e-01,7.924512416044939833e-01,7.779050727206290317e-01,7.632754105839337777e-01,7.486104458068620904e-01,7.339510615497125690e-01,7.193306502392916579e-01,7.047753692934399794e-01,6.903047462526333833e-01,6.759325278925618630e-01,6.616676677024516673e-01,6.475153577049983511e-01,6.334780292644053290e-01,6.195562688753718517e-01,6.057496155331436594e-01,5.920572239721012542e-01,5.784783917951836774e-01,5.650129581488797514e-01,5.516615875458117380e-01,5.384259554014311222e-01,5.253088526106052258e-01,5.123142257643681363e-01,4.994471679937554365e-01,4.867138733796295691e-01,4.741215657021182195e-01,4.616784102245146681e-01,4.493934153306294310e-01,4.372763292155047998e-01,4.253375354795033148e-01,4.135879503821232039e-01,4.020389236477949768e-01,3.907021440489191200e-01,3.795895504882946803e-01,3.687132489326869211e-01,3.580854352839750732e-01,3.477183240906602246e-01,3.376240828810179728e-01,3.278147718241596897e-01,3.183022883843258377e-01,3.090983166171670238e-01,3.002142807571568373e-01,2.916613027570877370e-01
4.455093412804552733e-01,4.454468323345512348e-01,4.451180325752320255e-01,4.446008274015585404e-01,4.439921737995127238e-01,4.434069347342745049e-01,4.429759302742889426e-01,4.428432131358492341e-01,4.431626162440707173e-01,4.440936607291884330e-01,4.457969519623422028e-01,4.484292261312063377e-01,4.521382379143118468e-01,4.570576987943332226e-01,4.633024837193200351e-01,4.709643201088434261e-01,4.801081573255117640e-01,4.907693872476787122e-01,5.029520488707258652e-01,5.166281040628238896e-01,5.317378204375563522e-01,5.481912439132364812e-01,5.658706912081504781e-01,5.846341444922660280e-01,6.043193895765589518e-01,6.247487077326284721e-01,6.457339111574760260e-01,6.670815040839644938e-01,6.885977555954228002e-01,7.100934855306665350e-01,7.313883899461356419e-01,7.523147653518479361e-01,7.727205288943662653e-01,7.924714721845926846e-01,8.114527269515630081e-01,8.295694587519736318e-01,8.467468385558982735e-01,8.629293696214964671e-01,8.780796676711749571e-01,8.921768055556114074e-01,9.052143394382312636e-01,9.171981326124275524e-01,9.281440863063389335e-01,9.380758754213560646e-01,9.470227724169623107e-01,9.550176258519812444e-01,9.620950427093658552e-01,9.682898067123051344e-01,9.736355493290083096e-01,9.781636767778162378e-01,9.819025455607175434e-01,9.848768711198716552e-01,9.871073491691997326e-01,9.886104669647254317e-01,9.893984819602764658e-01,9.894795475482985880e-01,9.888579694101501394e-01,9.875345808106508194e-01,9.855072302970534492e-01,9.827713799436489372e-01,9.793208156727302161e-01,9.751484723640082564e-01,9.702473745069905009e-01,9.646116872215818594e-01,9.582378620224875077e-01,9.511258467274475992e-01,9.432803102500312287e-01,9.347118126401186000e-01,9.254378318558031946e-01,9.154835456662719917e-01,9.048822645753511473e-01,8.936754239228962282e-01,8.819120726244623620e-01,8.696478413511259387e-01,8.569434293446263062e-01,8.438627078681804061e-01,8.304705888196360908e-01,8.168308391201301033e-01,8.030040282941578456e-01,7.890457766554080932e-01,7.750054289693115717e-01,7.609252221542202044e-01,7.468399562973663253e-01,7.327771259959894312e-01,7.187574308152802072e-01,7.047955625473830699e-01,6.909011622900961269e-01,6.770798488170732821e-01,6.633342367020805819e-01,6.496648835970426639e-01,6.360711271833733305e-01,6.225517910553468592e-01,6.091057537906016117e-01,5.957323863285745036e-01,5.824318697884931506e-01,5.692054096552835452e-01,5.560553636162061109e-01,5.429852999909609013e-01,5.300000023021108619e-01,5.171054335782810929e-01,5.043086718268648960e-01,4.916178259917989291e-01,4.790419397657249001e-01,4.665908889251810798e-01,4.542752764255506004e-01,4.421063283226923102e-01,4.300957926570408985e-01,4.182558427121990108e-01,4.065989855101952433e-01,3.951379759976928474e-01,3.838857370827063464e-01,3.728552854750257217e-01,3.620596631449290448e-01,3.515118741270716329e-01,3.412248263462996367e-01,3.312112781190792443e-01,3.214837889802134030e-01,3.120546744934209471e-01,3.029359647216120499e-01
4.332116616879965743e-01,4.329131860106802954e-01,4.323436225071018990e-01,4.315743268758041595e-01,4.306959301439832744e-01,4.298174491451970392e-01,4.290646202183912572e-01,4.285774501172460171e-01,4.285070171183147369e-01,4.290115960926958460e-01,4.302522213854213518e-01,4.323878380910344821e-01,4.355702231135323288e-01,4.399388798797250755e-01,4.456161227991528029e-01,4.527025682062335576e-01,4.612732370052355924e-01,4.713744508174282921e-01,4.830216691942421647e-01,4.961983722860724422e-01,5.108560437786079378e-01,5.269152559410512637e-01,5.442678055421082961e-01,5.627797994580175933e-01,5.822955450622150364e-01,6.026420655250511738e-01,6.236340358923675442e-01,6.450789234050974263e-01,6.667821152810544660e-01,6.885518285865377397e-01,7.102036186049194288e-01,7.315643323629399397e-01,7.524753903539426192e-01,7.727953194017153082e-01,7.924015003966018433e-01,8.111911338163106944e-01,8.290814613461000571e-01,8.460093118130010970e-01,8.619300628519681595e-01,8.768161255953824673e-01,8.906550681352286558e-01,9.034474949553522594e-01,9.152047947806095651e-01,9.259468594499667971e-01,9.356998627838304383e-01,9.444941723430715363e-01,9.523624497953091517e-01,9.593379785209654731e-01,9.654532411331847586e-01,9.707387555556746817e-01,9.752221667650318171e-01,9.789275825848242629e-01,9.818751361204373085e-01,9.840807544505191240e-01,9.855561127751658601e-01,9.863087549482243421e-01,9.863423646485683927e-01,9.856571757131210587e-01,9.842505145915221298e-01,9.821174716122700321e-01,9.792516998100962988e-01,9.756463394533817501e-01,9.712950621874276713e-01,9.661932201588397939e-01,9.603390723587239552e-01,9.537350432314987136e-01,9.463889489136332323e-01,9.383151071100801488e-01,9.295352315844412905e-01,9.200790062534406344e-01,9.099842414560062043e-01,8.992965391248985974e-01,8.880684344495719529e-01,8.763580354506446124e-01,8.642272410665221560e-01,8.517396725873560559e-01,8.389584919382753192e-01,8.259442952880748923e-01,8.127532584612836564e-01,7.994356742107515679e-01,7.860349681828812107e-01,7.725872208556446852e-01,7.591211673674507221e-01,7.456586040876597155e-01,7.322151043154623284e-01,7.188009360237123113e-01,7.054220794347745294e-01,6.920812570843947187e-01,6.787789091976975664e-01,6.655140685900633457e-01,6.522851089684046366e-01,6.390903567305512567e-01,6.259285684865076860e-01,6.127992846609305877e-01,5.997030742382870594e-01,5.866416877324274193e-01,5.736181355676955862e-01,5.606367079268449460e-01,5.477029502936316963e-01,5.348236067936853466e-01,5.220065412866400356e-01,5.092606441523493954e-01,4.965957309337495351e-01,4.840224374842569399e-01,4.715521150193703326e-01,4.591967274709752855e-01,4.469687527591144072e-01,4.348810889964068727e-01,4.229469661921947399e-01,4.111798636969972165e-01,3.995934333968996222e-01,3.882014285101540452e-01,3.770176377366706300e-01,3.660558244507585157e-01,3.553296705971888403e-01,3.448527249416445395e-01,3.346383553322244686e-01,3.246997046438770962e-01,3.150496500988011483e-01
4.216023307925697017e-01,4.210380224978240715e-01,4.201993064799050548e-01,4.191510447773403869e-01,4.179774842128410883e-01,4.167816374847841399e-01,4.156838985345975845e-01,4.148198729924679751e-01,4.143374423162032305e-01,4.143931206450356952e-01,4.151478040196147079e-01,4.167620498713007771e-01,4.193910579147749895e-01,4.231795493051717649e-01,4.282567570272005075e-01,4.347317454052945229e-01,4.426892695026397040e-01,4.521863659612893049e-01,4.632498363174675227e-01,4.758747436098720862e-01,4.900239954999445202e-01,5.056290350070067330e-01,5.225916065324233140e-01,5.407865134089510084e-01,5.600652369175155298e-01,5.802602483311112280e-01,6.011898172540323104e-01,6.226631027661696516e-01,6.444853092741787970e-01,6.664626962898230200e-01,6.884072495863824415e-01,7.101408486344921167e-01,7.314987996801974868e-01,7.523326427677520245e-01,7.725121817778154432e-01,7.919267265821975377e-01,8.104855734062429429e-01,8.281177815432038125e-01,8.447713302909845012e-01,8.604117585458284090e-01,8.750204006128484702e-01,8.885923357190016469e-01,9.011341661192647789e-01,9.126617305895459165e-01,9.231978477435307529e-01,9.327701683480211781e-01,9.414091989967566798e-01,9.491465423997258455e-01,9.560133832543982191e-01,9.620392340758652239e-01,9.672509431242840572e-01,9.716719570835785635e-01,9.753218245796609898e-01,9.782159229231540687e-01,9.803653893650986495e-01,9.817772392308095064e-01,9.824546559524248712e-01,9.823974415126796034e-01,9.816026192640444625e-01,9.800651835083872276e-01,9.777789905543061710e-01,9.747377831729977515e-01,9.709363335781109328e-01,9.663716787802977271e-01,9.610444066099707028e-01,9.549599320421829907e-01,9.481296840935734549e-01,9.405721071379121723e-01,9.323133715691390710e-01,9.233876920309327385e-01,9.138371705574833692e-01,9.037111180807092525e-01,8.930648583697619047e-01,8.819580770898260980e-01,8.704528356282705825e-01,8.586114138282798791e-01,8.464941686176910007e-01,8.341575917819697983e-01,8.216527205706057879e-01,8.090240056932000989e-01,7.963086824492286997e-01,7.835366330460394879e-01,7.707306806448611658e-01,7.579072238783934878e-01,7.450771060433954984e-01,7.322466140358316888e-01,7.194185143892342094e-01,7.065930527844757059e-01,6.937688647755462235e-01,6.809437658995416420e-01,6.681154067255895557e-01,6.552817917945038539e-01,6.424416707144033900e-01,6.295948153562024308e-01,6.167421998512208070e-01,6.038861007077045429e-01,5.910301335458969518e-01,5.781792412880661924e-01,5.653396465722241304e-01,5.525187789935800398e-01,5.397251857118553486e-01,5.269684321059385779e-01,5.142589975598341745e-01,5.016081701353005684e-01,4.890279428125419159e-01,4.765309131334205528e-01,4.641301874292325658e-01,4.518392903239854541e-01,4.396720798433673694e-01,4.276426682019676684e-01,4.157653481636039983e-01,4.040545247527042583e-01,3.925246520231572278e-01,3.811901745527319085e-01,3.700654733165255061e-01,3.591648155947511634e-01,3.485023085830075695e-01,3.380918563929461440e-01,3.279471201550094306e-01
4.107389243060883266e-01,4.098799132269151935e-01,4.087445441326024165e-01,4.073912511218867327e-01,4.058978713088698953e-01,4.043612895850179356e-01,4.028963330342421045e-01,4.016338832167837269e-01,4.007182109034190254e-01,4.003035775699218535e-01,4.005501888020712720e-01,4.016196241760031649e-01,4.036699035167047867e-01,4.068503781344315895e-01,4.112966554229072758e-01,4.171257742914402655e-01,4.244318461687183186e-01,4.332823614090231534e-01,4.437153343399964922e-01,4.557374232346678711e-01,4.693231162442605409e-01,4.844150234817137246e-01,5.009252621077998624e-01,5.187378687386967613e-01,5.377121250016105858e-01,5.576866405453486664e-01,5.784840056772484473e-01,5.999158047678064820e-01,6.217877725599108008e-01,6.439048786174290662e-01,6.660761396084697861e-01,6.881189834776636483e-01,7.098630217757290195e-01,7.311531240441273560e-01,7.518517285666410643e-01,7.718403643802919101e-01,7.910203977695270394e-01,8.093130504943397696e-01,8.266587651450632013e-01,8.430160142379284904e-01,8.583596634927341817e-01,8.726790062298948047e-01,8.859755855227841037e-01,8.982609145547191254e-01,9.095541947376366565e-01,9.198801168821635343e-01,9.292668144360619609e-01,9.377440208395477761e-01,9.453414665505374126e-01,9.520875362396064023e-01,9.580081937758528898e-01,9.631261723998800761e-01,9.674604201332335229e-01,9.710257859849166229e-01,9.738329306366588778e-01,9.758884455599450281e-01,9.771951662857586429e-01,9.777526679823401734e-01,9.775579336153528143e-01,9.766061856795006380e-01,9.748918706846366744e-01,9.724097802451912020e-01,9.691562830661880623e-01,9.651306282377927204e-01,9.603362628381808541e-01,9.547820878670110201e-01,9.484835592337885757e-01,9.414635292279344148e-01,9.337527233579757668e-01,9.253897617642986573e-01,9.164206656376721050e-01,9.068978359346043794e-01,8.968785488893178393e-01,8.864230715288914375e-01,8.755925498760936954e-01,8.644468528007465125e-01,8.530425590963925941e-01,8.414312532756035301e-01,8.296582514949640830e-01,8.177618219868013627e-01,8.057729052214870347e-01,7.937152875834664334e-01,7.816061453506407686e-01,7.694568559671179919e-01,7.572739700669507412e-01,7.450602469665640326e-01,7.328156737720263880e-01,7.205384092932444196e-01,7.082256149429151382e-01,6.958741532585638323e-01,6.834811493453366582e-01,6.710444210710989621e-01,6.585627905680354610e-01,6.460362931643949258e-01,6.334663010604260069e-01,6.208555786148500788e-01,6.082082846502374629e-01,5.955299352030662963e-01,5.828273379835435808e-01,5.701085076986649458e-01,5.573825694633854910e-01,5.446596558451805015e-01,5.319508016768679237e-01,5.192678396229972737e-01,5.066232985719466564e-01,4.940303062174409843e-01,4.815024966561389785e-01,4.690539234304056393e-01,4.566989781588781661e-01,4.444523146975579153e-01,4.323287786405313193e-01,4.203433418855203607e-01,4.085110419422150474e-01,3.968469256404358325e-01,3.853659968927318769e-01,3.740831681761114247e-01,3.630132154157285629e-01,3.521707359762560885e-01,3.415701094920414183e-01
4.006758844263156871e-01,3.994944550055741228e-01,3.980359734763633806e-01,3.963525398151572787e-01,3.945155875346769703e-01,3.926157838057534044e-01,3.907621986641386380e-01,3.890806996095456105e-01,3.877115625855160896e-01,3.868063290852502556e-01,3.865239798488535050e-01,3.870265358487586238e-01,3.884742343704627454e-01,3.910204593658297423e-01,3.948066284851497465e-01,3.999572523017452252e-01,4.065753828493376409e-01,4.147386580573321768e-01,4.244961261760095694e-01,4.358660008576020206e-01,4.488344550164389823e-01,4.633555124198205921e-01,4.793520431439379781e-01,4.967178158232127827e-01,5.153205093132554593e-01,5.350055420452667354e-01,5.556005415945520776e-01,5.769202518039522332e-01,5.987716614117062353e-01,6.209591369136606698e-01,6.432893528889770396e-01,6.655758340192909905e-01,6.876429526794856084e-01,7.093292619545736866e-01,7.304900836561306621e-01,7.509993117282129926e-01,7.707504308389471204e-01,7.896567857499596776e-01,8.076511674812120178e-01,8.246848061086503590e-01,8.407258765733010009e-01,8.557576330209899496e-01,8.697762893087218616e-01,8.827887591986055549e-01,8.948103605137512906e-01,9.058625744466218821e-01,9.159709356609505582e-01,9.251631121581799233e-01,9.334672173167035680e-01,9.409103811001204853e-01,9.475175939797524371e-01,9.533108261774729808e-01,9.583084166876918442e-01,9.625247211936246439e-01,9.659700052051756192e-01,9.686505680214758662e-01,9.705690837414276961e-01,9.717251465915720532e-01,9.721160082365201127e-01,9.717374933258513536e-01,9.705850751990221514e-01,9.686550855372197955e-01,9.659460194351534579e-01,9.624598812900874156e-01,9.582034985984977382e-01,9.531897130221566039e-01,9.474383449355264775e-01,9.409768237888714859e-01,9.338403864395733445e-01,9.260717719416259319e-01,9.177203839918984807e-01,9.088409472729629401e-01,8.994917434325185868e-01,8.897325660065210640e-01,8.796225707246093650e-01,8.692182105429675509e-01,8.585714306207271607e-01,8.477282603114614234e-01,8.367278850351552721e-01,8.256022212234842561e-01,8.143759628044620058e-01,8.030670257544307855e-01,7.916872920856684592e-01,7.802435463658700110e-01,7.687385036427627494e-01,7.571718430568684655e-01,7.455411817874041391e-01,7.338429452881202186e-01,7.220731091824774683e-01,7.102278040780287682e-01,6.983037863435599402e-01,6.862987857208876497e-01,6.742117450963094338e-01,6.620429695921806745e-01,6.497942021193016116e-01,6.374686413232062421e-01,6.250709159919433100e-01,6.126070278570949768e-01,6.000842725747269624e-01,5.875111466782638736e-01,5.748972465352766292e-01,5.622531638469840942e-01,5.495903810017438440e-01,5.369211686112915771e-01,5.242584867908992585e-01,5.116158911585674263e-01,4.990074440913175868e-01,4.864476314590055472e-01,4.739512848320928118e-01,4.615335090078874214e-01,4.492096146022991343e-01,4.369950553970044504e-01,4.249053701039720021e-01,4.129561282020700053e-01,4.011628795073768350e-01,3.895411071549894633e-01,3.781061836919986652e-01,3.668733300062402281e-01,3.558575768415788709e-01
3.914642767029080650e-01,3.899340218753227782e-01,3.881271586851425814e-01,3.860895731945973575e-01,3.838863317365296957e-01,3.816018268291769266e-01,3.793392153723832427e-01,3.772190942719018669e-01,3.753773914206790518e-01,3.739624874755401174e-01,3.731316241481673068e-01,3.730466954340564412e-01,3.738695567440439294e-01,3.757570206327760509e-01,3.788557342336398293e-01,3.832971504562103227e-01,3.891928108655594576e-01,3.966301520232975442e-01,4.056690288089313534e-01,4.163391185812723161e-01,4.286383305247041253e-01,4.425322974177173241e-01,4.579549751894313459e-01,4.748103221796613482e-01,4.929749782942046687e-01,5.123018174238702649e-01,5.326242073798803656e-01,5.537607824231781661e-01,5.755205157364789992e-01,5.977078735914896912e-01,6.201278393425605495e-01,6.425906127786129574e-01,6.649158171451374777e-01,6.869360801341974909e-01,7.084998938198313612e-01,7.294736992425457922e-01,7.497431815421466972e-01,7.692137988758963596e-01,7.878106009094160145e-01,8.054774190018837432e-01,8.221755294508351630e-01,8.378819030017395919e-01,8.525871584725289720e-01,8.662933364510683187e-01,8.790116016009186239e-01,8.907599703996926799e-01,9.015611464950153975e-01,9.114405296630080366e-01,9.204244478706751220e-01,9.285386462852900369e-01,9.358070531223873223e-01,9.422508305953839480e-01,9.478877102537544008e-01,9.527316057091252954e-01,9.567924918954765490e-01,9.600765380590434717e-01,9.625864808391593197e-01,9.643222230826317132e-01,9.652816422864499701e-01,9.654615886126713953e-01,9.648590452400835904e-01,9.634724127817774209e-01,9.613028646827496138e-01,9.583557030151913514e-01,9.546416262632746452e-01,9.501778061504315698e-01,9.449886638321094434e-01,9.391062414605378939e-01,9.325700866720634252e-01,9.254266058338230794e-01,9.177278941137698709e-01,9.095301098304842125e-01,9.008915172677607330e-01,8.918703654433249861e-01,8.825227913011165493e-01,8.729009299537574540e-01,8.630513831901464039e-01,8.530141471226065919e-01,8.428220406653386121e-01,8.325006192758412915e-01,8.220685118843868988e-01,8.115380884174234755e-01,8.009163520271767034e-01,7.902059520027601147e-01,7.794062262759501314e-01,7.685142017270896186e-01,7.575255018607657265e-01,7.464351316298097894e-01,7.352381262511679116e-01,7.239300639040615604e-01,7.125074511887947715e-01,7.009679956318237704e-01,6.893107820741960490e-01,6.775363702505129426e-01,6.656468299573221614e-01,6.536457284971582959e-01,6.415380829973649224e-01,6.293302880387390275e-01,6.170300269758280942e-01,6.046461734929445830e-01,5.921886883636739984e-01,5.796685150740417125e-01,5.670974769147367756e-01,5.544881773177686712e-01,5.418539045748140826e-01,5.292085415951378602e-01,5.165664810097202464e-01,5.039425456781063684e-01,4.913519144826304919e-01,4.788100531822746531e-01,4.663326500303379696e-01,4.539355558243404198e-01,4.416347280439073542e-01,4.294461787356658733e-01,4.173859258180833143e-01,4.054699474997479625e-01,3.937141395289500689e-01,3.821342750184918424e-01,3.707459666160186629e-01
3.831515607130051015e-01,3.812475299891522340e-01,3.790683501348007245e-01,3.766538380821973786e-01,3.740627582715028154e-01,3.713732036520060453e-01,3.686822956170088816e-01,3.661051376666668578e-01,3.637729882860747388e-01,3.618306545335618907e-01,3.604331473688926479e-01,3.597416805917733051e-01,3.599191348870792728e-01,3.611251442358472952e-01,3.635109912711284030e-01,3.672145187322440885e-01,3.723552741708202607e-01,3.790301033021690191e-01,3.873093934603812349e-01,3.972341429246674660e-01,4.088139956925817553e-01,4.220263366013838890e-01,4.368164911883326007e-01,4.530990214174556718e-01,4.707600556748516851e-01,4.896605424967215847e-01,5.096402753089558368e-01,5.305225024850009907e-01,5.521189150518889255e-01,5.742347943803434163e-01,5.966741043287562274e-01,6.192443258968168829e-01,6.417608560728970124e-01,6.640508242278077011e-01,6.859562167030328617e-01,7.073362405426346644e-01,7.280688980011125189e-01,7.480517820897844006e-01,7.672021379165633315e-01,7.854562633125889981e-01,8.027683441497702743e-01,8.191088343261327953e-01,8.344624976624549495e-01,8.488262294247685968e-01,8.622067697607983527e-01,8.746184111889496737e-01,8.860807887393755689e-01,8.966168257941962150e-01,9.062508924224830231e-01,9.150072172187158070e-01,9.229085792742961480e-01,9.299752946130422915e-01,9.362245015738157594e-01,9.416697422784473526e-01,9.463208322127357741e-01,9.501840064972787436e-01,9.532623287834685044e-01,9.555563458154187062e-01,9.570649663799164486e-01,9.577865365089549554e-01,9.577200725794108305e-01,9.568666001401049392e-01,9.552305295768900306e-01,9.528209819891370058e-01,9.496529630817909240e-01,9.457482737317284283e-01,9.411360478162725807e-01,9.358528248132185201e-01,9.299420983837124455e-01,9.234533310256070049e-01,9.164404833348896995e-01,9.089601653677477078e-01,9.010695663032509684e-01,8.928243472999548569e-01,8.842766850631438302e-01,8.754736296458803801e-01,8.664558945357387909e-01,8.572571394417772828e-01,8.479037472603068171e-01,8.384150461253325748e-01,8.288038916838920134e-01,8.190775062150617014e-01,8.092384687620771677e-01,7.992857604554888251e-01,7.892157870146537801e-01,7.790233215207734707e-01,7.687023313684444581e-01,7.582466714573827815e-01,7.476506399904759848e-01,7.369094034355123668e-01,7.260193036362908581e-01,7.149780633978373157e-01,7.037849078952529425e-01,6.924406186996068246e-01,6.809475356937482182e-01,6.693095201396979110e-01,6.575318899930830963e-01,6.456213364575478231e-01,6.335858288605235034e-01,6.214345132726423193e-01,6.091776089036891051e-01,5.968263051781407258e-01,5.843926614977266176e-01,5.718895110050223884e-01,5.593303691374913456e-01,5.467293473739696097e-01,5.341010722971432090e-01,5.214606099020097085e-01,5.088233949515698074e-01,4.962051651008291819e-01,4.836218994657761616e-01,4.710897612952127389e-01,4.586250444024674300e-01,4.462441230252895963e-01,4.339634048012281919e-01,4.217992865693703242e-01,4.097681127351784913e-01,3.978861359617003601e-01,3.861694799765137964e-01
3.757813755620917351e-01,3.734802165535683893e-01,3.709062577559281704e-01,3.680934144274564113e-01,3.650942416844759619e-01,3.619805388641086363e-01,3.588433026045091401e-01,3.557919539437583989e-01,3.529527931776411664e-01,3.504666704895864626e-01,3.484858988655472056e-01,3.471704764545413546e-01,3.466837259010961958e-01,3.471874956347015262e-01,3.488371000255895416e-01,3.517761992795687687e-01,3.561318339260044485e-01,3.620098313183162109e-01,3.694907920116460853e-01,3.786268423229636193e-01,3.894393067731697911e-01,4.019174122145267591e-01,4.160180866997176263e-01,4.316668635017750777e-01,4.487598473909777397e-01,4.671666496090099430e-01,4.867341530467790278e-01,5.072909325955153870e-01,5.286521295444657209e-01,5.506245645257203947e-01,5.730118713073234504e-01,5.956194433233370500e-01,6.182590050452054786e-01,6.407526493353512542e-01,6.629362174944340991e-01,6.846619382487523220e-01,7.058002827793961043e-01,7.262410325484416340e-01,7.458935929046801583e-01,7.646866164591092918e-01,7.825670247373769373e-01,7.994985339335727303e-01,8.154598005532828209e-01,8.304423056953377236e-01,8.444480934557214713e-01,8.574874705350370441e-01,8.695767618830542167e-01,8.807362024900375896e-01,8.909880295718005661e-01,9.003548235991823967e-01,9.088581318856826519e-01,9.165173954873204742e-01,9.233491893867160627e-01,9.293667773872920090e-01,9.345799765447823093e-01,9.389953206939783970e-01,9.426165077897504796e-01,9.454451102833989484e-01,9.474815204673311397e-01,9.487260926900613622e-01,9.491804310851638116e-01,9.488487552911271106e-01,9.477392589992741367e-01,9.458653597819086656e-01,9.432467274365072818e-01,9.399099766077335660e-01,9.358889219546534521e-01,9.312243231705170654e-01,9.259630922504857864e-01,9.201569921490092563e-01,9.138609162253541474e-01,9.071308911485312931e-01,9.000219818475956313e-01,8.925862882087767236e-01,8.848712072052298261e-01,8.769180944898951058e-01,8.687614044712348438e-01,8.604283282303443192e-01,8.519388946280395114e-01,8.433064591737150506e-01,8.345384813626699483e-01,8.256374840755275057e-01,8.166020952619827966e-01,8.074280880231613500e-01,7.981093557089927737e-01,7.886387798375874558e-01,7.790089677723661676e-01,7.692128526275288092e-01,7.592441592977636766e-01,7.490977480189782156e-01,7.387698510644584715e-01,7.282582198275540097e-01,7.175621993943493981e-01,7.066827464245227786e-01,6.956224042534976393e-01,6.843852469802892413e-01,6.729768021647790643e-01,6.614039597779188817e-01,6.496748733076767035e-01,6.377988574510644604e-01,6.257862856150440134e-01,6.136484894847039628e-01,6.013976621651691001e-01,5.890467658307926291e-01,5.766094443888941656e-01,5.640999413562713949e-01,5.515330229295155595e-01,5.389239060835245843e-01,5.262881914391913662e-01,5.136418005871551395e-01,5.010009175289137362e-01,4.883819338910679320e-01,4.758013975766873238e-01,4.632759645349273647e-01,4.508223533526199422e-01,4.384573023970588235e-01,4.261975292657878556e-01,4.140596923256615325e-01,4.020603541489559674e-01
3.693933411671366795e-01,3.666734338247605862e-01,3.636838387153989993e-01,3.604527575737038192e-01,3.570266543396841130e-01,3.534710702640226354e-01,3.498708203101502101e-01,3.463294875619358226e-01,3.429681583922500332e-01,3.399233734768170034e-01,3.373443069313211140e-01,3.353892259879398541e-01,3.342213243902176223e-01,3.340040614973052713e-01,3.348961733002260299e-01,3.370465486411514111e-01,3.405891817021372558e-01,3.456384186278749215e-01,3.522847109875043015e-01,3.605910714773111203e-01,3.705903984754673197e-01,3.822837972600563461e-01,3.956399791029198698e-01,4.105957678441731762e-01,4.270576901011107762e-01,4.449045732751771287e-01,4.639910281859110919e-01,4.841516533258413690e-01,5.052057676818030307e-01,5.269624603751722480e-01,5.492257387904097010e-01,5.717995622992818605e-01,5.944925652557424556e-01,6.171222990434308553e-01,6.395188564692039224e-01,6.615277802218881842e-01,6.830121978161306506e-01,7.038541658314051430e-01,7.239552439888290447e-01,7.432363527250576141e-01,7.616369949602453948e-01,7.791139428068878381e-01,7.956395026823583905e-01,8.111994778519535654e-01,8.257909464780669451e-01,8.394199667766406581e-01,8.520993101146177029e-01,8.638463091680975703e-01,8.746808929435949675e-01,8.846238647758870588e-01,8.936954643829833067e-01,9.019142414311248634e-01,9.092962562582727060e-01,9.158546134787500792e-01,9.215993258325513304e-01,9.265374981984988434e-01,9.306738142406136838e-01,9.340112996419547287e-01,9.365523253008486426e-01,9.382998005587169787e-01,9.392584905050711530e-01,9.394363736805338982e-01,9.388459393390067298e-01,9.375053103543677935e-01,9.354390732566641997e-01,9.326787051705803799e-01,9.292625117779904631e-01,9.252350313681113603e-01,9.206459143901726261e-01,9.155483485783812991e-01,9.099971566672117040e-01,9.040467362392086148e-01,8.977490307262753211e-01,8.911517129679438209e-01,8.842967297584024555e-01,8.772193045143940049e-01,8.699474358386346529e-01,8.625018730585881643e-01,8.548965043977253542e-01,8.471390642165087526e-01,8.392320536949093857e-01,8.311737721464372841e-01,8.229593696811916548e-01,8.145818514571107061e-01,8.060329850615256531e-01,7.973040825196338055e-01,7.883866451399650366e-01,7.792728720819109833e-01,7.699560421777141839e-01,7.604307836666989173e-01,7.506932488368436296e-01,7.407412108891434643e-01,7.305740993368998737e-01,7.201929884868346621e-01,7.096005514399025271e-01,6.988009898841275325e-01,6.877999479094488722e-01,6.766044162543004559e-01,6.652226318373225533e-01,6.536639761399604120e-01,6.419388749693951679e-01,6.300587013174591133e-01,6.180356824068495847e-01,6.058828115479281129e-01,5.936137650873156701e-01,5.812428244866533200e-01,5.687848034037130684e-01,5.562549795400081321e-01,5.436690309543408262e-01,5.310429765084719866e-01,5.183931201003220135e-01,5.057359983448144192e-01,4.930883313774431231e-01,4.804669764769936013e-01,4.678888842288229100e-01,4.553710569766487026e-01,4.429305093375249247e-01,4.305842305806945602e-01,4.183491486956599226e-01
3.640228762162709408e-01,3.608644590898352766e-01,3.574401003871484628e-01,3.537724951306192023e-01,3.499021580051507319e-01,3.458884358191279818e-01,3.418099362924140738e-01,3.377642822205727535e-01,3.338671236060257175e-01,3.302503705475875462e-01,3.270596453173475471e-01,3.244509913799232259e-01,3.225869179331848913e-01,3.216318983691685007e-01,3.217474772235982550e-01,3.230871701097478010e-01,3.257913624843844502e-01,3.299824239962228511e-01,3.357602543783420046e-01,3.431984638842708324e-01,3.523413664844241011e-01,3.632019286241887635e-01,3.757607722584526133e-01,3.899662807220117822e-01,4.057358028273010953e-01,4.229578976833375248e-01,4.414955133652518349e-01,4.611899497289872474e-01,4.818654218697276947e-01,5.033340178078735683e-01,5.254008330080452982e-01,5.478690655089922812e-01,5.705448681548698220e-01,5.932417773180848064e-01,6.157845686328782264e-01,6.380124272330632840e-01,6.597813601992137400e-01,6.809658197450044748e-01,7.014595446599977135e-01,7.211756625672145482e-01,7.400461250015647474e-01,7.580205700618308784e-01,7.750647228918199350e-01,7.911584525076070795e-01,8.062936049929368965e-01,8.204717287097827993e-01,8.337017980681012963e-01,8.459980298721753167e-01,8.573778716414680590e-01,8.678602258312860807e-01,8.774639585975951839e-01,8.862067274257753313e-01,8.941041489972257894e-01,9.011693171457013651e-01,9.074126703248036607e-01,9.128421980040841710e-01,9.174639649389363383e-01,9.212829203697553426e-01,9.243039451506175341e-01,9.265330733650163353e-01,9.279788068121578304e-01,9.286534226684718396e-01,9.285741597431850236e-01,9.277641611815905520e-01,9.262530556843193708e-01,9.240770789477433800e-01,9.212786735176303754e-01,9.179055565695644070e-01,9.140093053007573021e-01,9.096435693097243425e-01,9.048620677507838161e-01,8.997165566088247690e-01,8.942549524884002565e-01,8.885197737886372238e-01,8.825470136097853802e-01,8.763655007725562607e-01,8.699967468203562149e-01,8.634552273060293048e-01,8.567490111967998034e-01,8.498806350036615109e-01,8.428481168532684364e-01,8.356460164338682661e-01,8.282664648857348544e-01,8.207001098223725144e-01,8.129369412669644746e-01,8.049669821021071536e-01,7.967808405533522986e-01,7.883701320552023439e-01,7.797277839671458155e-01,7.708482397046468870e-01,7.617275797005896854e-01,7.523635759414872837e-01,7.427556952343821184e-01,7.329050643161693079e-01,7.228144077419477176e-01,7.124879673926682866e-01,7.019314105455281005e-01,6.911517318101105811e-01,6.801571528634035024e-01,6.689570228055203849e-01,6.575617210789624911e-01,6.459825642151316716e-01,6.342317171591170810e-01,6.223221095460504948e-01,6.102673570316275997e-01,5.980816875919098274e-01,5.857798725834733045e-01,5.733771622784298305e-01,5.608892255471482624e-01,5.483320933447802803e-01,5.357221056583955088e-01,5.230758615839451453e-01,5.104101722221497939e-01,4.977420161066440918e-01,4.850884969040732964e-01,4.724668031527803902e-01,4.598941698331560080e-01,4.473878415879689041e-01,4.349650374346402115e-01
3.597010336328114732e-01,3.560863215013683747e-01,3.522099195139565819e-01,3.480892393811050867e-01,3.437590103375493533e-01,3.392724749310748744e-01,3.347020382699829044e-01,3.301392730738861303e-01,3.256942038233022196e-01,3.214938212168780840e-01,3.176798119989344693e-01,3.144055274484469642e-01,3.118322543796652191e-01,3.101248929865454418e-01,3.094471836525895525e-01,3.099566573093263111e-01,3.117995086104106695e-01,3.151056060330947317e-01,3.199838565372430388e-01,3.265181338373012720e-01,3.347639587220849200e-01,3.447460880820826801e-01,3.564571280690561061e-01,3.698572385083845893e-01,3.848749432280755278e-01,4.014090075890018872e-01,4.193312934976696771e-01,4.384904566755625233e-01,4.587163136560324372e-01,4.798246789809735291e-01,5.016224577241281679e-01,5.239127752954667594e-01,5.464999351628295754e-01,5.691940145652398808e-01,5.918149367295169050e-01,6.141958932868205601e-01,6.361860299698223198e-01,6.576523496148297676e-01,6.784808264664067279e-01,6.985767625399732506e-01,7.178644485199163761e-01,7.362862170536684792e-01,7.538009946038828346e-01,7.703824690550296062e-01,7.860169943583519281e-01,8.007013513835034013e-01,8.144404768816001505e-01,8.272452612944513062e-01,8.391305023657810169e-01,8.501130863490244938e-01,8.602104531050327463e-01,8.694393863043672344e-01,8.778151557072535471e-01,8.853510251215791493e-01,8.920581267959216687e-01,8.979456900490075943e-01,9.030215980695438516e-01,9.072932313101709223e-01,9.107685383916089839e-01,9.134572563041941651e-01,9.153721823804734647e-01,9.165303836945888349e-01,9.169542190328614506e-01,9.166720487737028966e-01,9.157185228845385883e-01,9.141343689816485707e-01,9.119656500888274619e-01,9.092625205505108221e-01,9.060775700190309978e-01,9.024638989033272329e-01,8.984731038644980794e-01,8.941533617604032758e-01,8.895477830080117387e-01,8.846931645942782696e-01,8.796192175205509445e-01,8.743482841115892690e-01,8.688955075420827789e-01,8.632693764534299374e-01,8.574725450296961649e-01,8.515028229618081257e-01,8.453542371890898632e-01,8.390180836430243261e-01,8.324839078155817917e-01,8.257403740004030102e-01,8.187760018619727465e-01,8.115797641356168324e-01,8.041415503028753742e-01,7.964525082602413875e-01,7.885052799256525580e-01,7.802941481724322559e-01,7.718151121947592896e-01,7.630659070375911401e-01,7.540459810725707035e-01,7.447564430343958097e-01,7.351999880914356078e-01,7.253808104550495406e-01,7.153045083078469757e-01,7.049779853771304117e-01,6.944093522904792870e-01,6.836078299027701366e-01,6.725836560466362801e-01,6.613479965978119601e-01,6.499128613306986990e-01,6.382910247386140989e-01,6.264959517824348900e-01,6.145417283897811611e-01,6.024429964373025914e-01,5.902148928974957354e-01,5.778729928081378642e-01,5.654332557185368646e-01,5.529119752762786666e-01,5.403257316362344298e-01,5.276913463968990747e-01,5.150258397951608114e-01,5.023463899176399128e-01,4.896702937135504752e-01,4.770149296198357147e-01,4.643977216336299119e-01,4.518361046896116617e-01
3.564543543015679661e-01,3.523676465671509161e-01,3.480238783993793716e-01,3.434354160918764443e-01,3.386313871600714620e-01,3.336590449156993654e-01,3.285846253815037921e-01,3.234935931545861454e-01,3.184901911272878250e-01,3.136962344676879066e-01,3.092491211281673813e-01,3.052990680149947345e-01,3.020056219320519375e-01,2.995335352149939845e-01,2.980481350373481164e-01,2.977103500461661945e-01,2.986715857310721645e-01,3.010686585230006318e-01,3.050190063442860255e-01,3.106163891498128771e-01,3.179272766568425612e-01,3.269880925470690092e-01,3.378034463528707954e-01,3.503454381669620643e-01,3.645540699909286531e-01,3.803387441074332354e-01,3.975807766260338605e-01,4.161368065262905369e-01,4.358429399858901321e-01,4.565194388750551946e-01,4.779757426542520782e-01,5.000156053540465440e-01,5.224421338246290070e-01,5.450625291914191761e-01,5.676923589070748122e-01,5.901592198564659109e-01,6.123056911870994323e-01,6.339915162755808131e-01,6.550949939133485778e-01,6.755135970405098389e-01,6.951638711927190517e-01,7.139806927596745734e-01,7.319159882420910312e-01,7.489370295551661671e-01,7.650244272043789096e-01,7.801699434477594730e-01,7.943742422956799887e-01,8.076446835415271863e-01,8.199932552048377898e-01,8.314347239931282330e-01,8.419850676676958745e-01,8.516602372751628236e-01,8.604752814777120173e-01,8.684438497042583638e-01,8.755780752319428650e-01,8.818888230321817456e-01,8.873862696686413143e-01,8.920807633364864486e-01,8.959838914786995012e-01,8.991096624278938076e-01,9.014756884977839224e-01,9.031042443612041781e-01,9.040230706595949739e-01,9.042658027677147325e-01,9.038719313119975007e-01,9.028862445046142993e-01,9.013577589549751634e-01,8.993382078415349534e-01,8.968802129161399517e-01,8.940353090499003619e-01,8.908520085362763297e-01,8.873740835112035041e-01,8.836392108336430518e-01,8.796780719783579006e-01,8.755139413564907436e-01,8.711627406597404200e-01,8.666334927046659420e-01,8.619290804693289232e-01,8.570472062451804929e-01,8.519814496185881270e-01,8.467223371002521315e-01,8.412583559416684231e-01,8.355768658831269624e-01,8.296648822416917701e-01,8.235097200766079428e-01,8.170995014442580251e-01,8.104235360373729380e-01,8.034725903265130809e-01,7.962390624280315521e-01,7.887170800792205894e-01,7.809025379911234133e-01,7.727930890218589477e-01,7.643881014742749391e-01,7.556885926480720883e-01,7.466971467398014761e-01,7.374178233771064850e-01,7.278560615338897088e-01,7.180185823028215619e-01,7.079132929817600894e-01,6.975491941315983269e-01,6.869362906513039047e-01,6.760855074584355417e-01,6.650086100298638891e-01,6.537181298213773362e-01,6.422272944240006165e-01,6.305499622109671520e-01,6.187005611676854588e-01,6.066940315662019412e-01,5.945457721366860238e-01,5.822715893944968579e-01,5.698876497973750510e-01,5.574104344294290581e-01,5.448566959341312188e-01,5.322434174455437095e-01,5.195877732941078797e-01,5.069070912896475045e-01,4.942188164091707026e-01,4.815404757402564351e-01,4.688896445521355538e-01
3.543047397424708977e-01,3.497325190272887463e-01,3.449081189027372596e-01,3.398391105345472396e-01,3.345492213669367665e-01,3.290798535512208800e-01,3.234911349961388516e-01,3.178623948843950497e-01,3.122919711161569190e-01,3.068962801069257118e-01,3.018081090672021793e-01,2.971741261467356621e-01,2.931516429285642156e-01,2.899047045483956753e-01,2.875996227099693048e-01,2.864001034259349154e-01,2.864621518320703553e-01,2.879289585388780104e-01,2.909259837808241822e-01,2.955564558009776688e-01,3.018974879215695628e-01,3.099969948823580457e-01,3.198715544015919843e-01,3.315053164319339829e-01,3.448500128030256295e-01,3.598260668913493276e-01,3.763247499109313443e-01,3.942112806493776045e-01,4.133287220104010506e-01,4.335024931232402956e-01,4.545452919443714324e-01,4.762622113313459415e-01,4.984558317976370834e-01,5.209310860185155656e-01,5.434997123581625234e-01,5.659841453179748072e-01,5.882207275157579351e-01,6.100621680065573260e-01,6.313792128274984261e-01,6.520615331328132314e-01,6.720178720513693138e-01,6.911755217722592715e-01,7.094792262014271156e-01,7.268896212507212073e-01,7.433813343746744629e-01,7.589408677870627118e-01,7.735643866687060832e-01,7.872555256680627833e-01,8.000233152551129434e-01,8.118803151460803891e-01,8.228410260429068757e-01,8.329206340350151505e-01,8.421341245683411358e-01,8.504957849293673933e-01,8.580190954643353018e-01,8.647169898589958104e-01,8.706024434445721605e-01,8.756893257951287035e-01,8.799934307419862156e-01,8.835335753279804916e-01,8.863326423073852878e-01,8.884184326373165685e-01,8.898241992839946990e-01,8.905887549156924488e-01,8.907560846768987073e-01,8.903744487298638211e-01,8.894950211596575063e-01,8.881701725039120587e-01,8.864515516746920287e-01,8.843881499611381258e-01,8.820245298327616945e-01,8.793993747870599842e-01,8.765444694585988739e-01,8.734841614116255482e-01,8.702352983668271147e-01,8.668075863680307913e-01,8.632042814490202831e-01,8.594231115681572053e-01,8.554573253261126276e-01,8.512967754281915989e-01,8.469289633188212818e-01,8.423399925224811513e-01,8.375153985812499036e-01,8.324408409226911054e-01,8.271026555040187356e-01,8.214882765173836532e-01,8.155865412270184578e-01,8.093878948436005194e-01,8.028845129991889484e-01,7.960703585838762031e-01,7.889411880354512130e-01,7.814945200847812634e-01,7.737295777660638807e-01,7.656472124032417392e-01,7.572498163955960759e-01,7.485412299988298823e-01,7.395266459437727091e-01,7.302125146391565957e-01,7.206064518402932606e-01,7.107171499989771712e-01,7.005542940079074743e-01,6.901284816839433622e-01,6.794511490708908807e-01,6.685345004605904862e-01,6.573914429113747460e-01,6.460355249697635749e-01,6.344808792621086102e-01,6.227421686080764074e-01,6.108345353100174124e-01,5.987735532857522136e-01,5.865751827329959145e-01,5.742557270384927026e-01,5.618317916718010840e-01,5.493202448309759678e-01,5.367381796341592626e-01,5.241028776766513131e-01,5.114317737968973043e-01,4.987424219168845596e-01,4.860524618425328125e-01
